ply
format ascii 1.0
element vertex 1285
property float x
property float y
property float z
property uchar red
property uchar green
property uchar blue
end_header
0.722266 -0.078368 0.152663 50 28 31
0.732625 -0.058399 0.260126 50 29 30
0.710835 -0.098474 -0.022875 50 31 30
0.702228 -0.084690 0.076019 50 31 33
0.681308 -0.066013 0.199808 50 31 33
0.695735 -0.084168 0.062228 50 31 34
0.699170 -0.080589 0.087220 50 31 34
0.732120 -0.036930 0.363139 50 32 31
0.738016 -0.037077 0.369805 50 32 31
0.689598 -0.083736 0.050793 50 32 35
0.685340 -0.076066 0.087283 50 33 36
0.743892 0.093905 0.688158 50 40 32
0.567146 0.086286 0.467252 50 40 33
0.702186 0.025735 0.524876 50 47 33
0.704437 -0.102511 -0.126385 51 29 30
0.729970 -0.054080 0.275893 51 29 32
0.735715 -0.054253 0.282180 51 29 32
0.708070 -0.100671 -0.072143 51 30 30
0.709969 -0.088798 0.065727 51 30 30
0.710554 -0.092162 0.037723 51 32 30
0.687856 -0.080023 0.071732 51 32 36
0.679660 -0.072460 0.114391 51 34 33
0.725196 0.093672 0.668350 51 41 31
0.723022 0.088206 0.650841 51 41 34
0.740555 0.104759 0.704518 51 42 34
0.704296 -0.105353 -0.156293 52 26 30
0.706516 -0.111709 -0.279458 52 27 30
0.700608 -0.107007 -0.209204 52 27 31
0.703691 -0.109415 -0.244099 52 28 32
0.713408 -0.096132 0.025974 52 29 30
0.684397 -0.083557 0.046069 52 32 36
0.731818 0.093788 0.678203 52 41 33
0.734688 0.083013 0.658255 52 41 34
0.729681 0.088314 0.661172 52 41 34
0.736392 0.088424 0.671690 52 41 34
0.738127 0.093872 0.685374 52 41 34
0.704891 -0.091843 0.029833 53 31 32
0.704398 -0.088522 0.058691 53 31 32
0.704778 -0.113812 -0.316707 54 30 31
0.692727 -0.087804 0.040347 54 30 34
0.698897 -0.088261 0.052014 54 30 34
0.699149 -0.091495 0.021230 54 32 33
0.682495 -0.079813 0.065974 54 32 37
0.698689 -0.109145 -0.249555 55 30 31
0.686614 -0.087355 0.028871 55 31 35
0.707501 -0.095730 0.016338 55 32 33
0.702472 -0.100306 -0.080368 55 34 34
0.576835 0.091898 0.517530 55 45 35
0.554561 0.086624 0.499625 55 45 36
0.695956 -0.106867 -0.212103 56 29 31
0.702626 -0.111786 -0.277941 56 30 33
0.694389 -0.091427 0.019539 56 31 36
0.702088 -0.095466 0.010018 56 32 36
0.699123 -0.102205 -0.133096 56 33 32
0.699556 -0.105210 -0.159340 57 31 35
0.677246 -0.073045 0.131655 57 32 31
0.688654 -0.091070 0.010723 57 32 36
0.705448 -0.098200 -0.029257 57 33 34
0.679677 -0.083511 0.044861 57 33 38
0.548192 0.086474 0.485292 57 47 38
0.681587 -0.087213 0.025223 58 30 34
0.682493 -0.090580 -0.001398 58 32 35
0.695831 -0.094946 -0.002450 58 32 37
0.586970 0.092529 0.571198 58 47 37
0.679162 -0.080158 0.075441 59 35 40
0.700016 -0.097906 -0.036080 61 36 37
0.620549 0.021195 0.439415 61 58 40
0.694557 -0.097599 -0.043221 62 36 39
0.677188 -0.084103 0.060500 62 36 41
0.693775 -0.101882 -0.140163 62 38 37
0.691559 -0.095012 -0.000852 63 32 38
0.677654 -0.090477 -0.003952 63 33 36
0.697512 -0.100130 -0.084328 64 36 38
0.688392 -0.097069 -0.055534 64 36 39
0.675552 -0.077168 0.118572 64 39 38
0.595489 0.092939 0.606058 64 52 42
0.677466 -0.087333 0.028293 65 32 34
0.686215 -0.094755 -0.007024 65 33 38
0.676498 -0.080698 0.090222 65 39 43
0.680405 -0.066965 0.230237 65 41 42
0.694017 -0.104809 -0.167886 66 36 35
0.677572 -0.074368 0.170657 67 37 36
0.692449 -0.099920 -0.089079 67 38 40
0.684576 -0.097257 -0.051161 68 35 39
0.679899 -0.094194 -0.020452 69 34 37
0.679230 -0.096970 -0.057835 70 36 39
0.675158 -0.084839 0.079975 70 42 46
0.689361 -0.101849 -0.140883 71 40 42
0.526502 0.101404 0.471100 71 56 47
0.674497 -0.090881 0.006048 72 37 39
0.686645 -0.099473 -0.099153 72 39 39
0.674976 -0.094054 -0.023818 74 37 40
0.675075 -0.087967 0.044513 74 38 40
0.674877 -0.081543 0.113360 75 45 49
0.671721 -0.091410 0.019135 81 43 45
0.675653 -0.078474 0.155682 83 53 52
0.676780 -0.075419 0.201659 84 51 51
0.673099 -0.088739 0.064238 85 45 47
0.673481 -0.085694 0.102575 86 54 57
0.674512 -0.082763 0.146774 92 59 63
0.671405 -0.089612 0.086545 96 53 55
0.675033 -0.079609 0.187885 98 64 65
0.643660 -0.045870 0.329669 98 65 67
0.638426 -0.045804 0.327002 99 65 68
0.604111 -0.026492 0.329035 99 66 68
0.647292 -0.050416 0.318317 100 64 66
0.674243 -0.076021 0.219413 100 65 66
0.672466 -0.086762 0.130813 100 65 68
0.633015 -0.045697 0.322683 100 65 68
0.620037 -0.036406 0.339528 100 66 67
0.641251 -0.050158 0.308448 100 66 69
0.597273 -0.030942 0.310290 100 66 69
0.602680 -0.035865 0.315126 101 63 65
0.612307 -0.049083 0.267198 101 63 66
0.653148 -0.050626 0.326370 101 64 66
0.603613 -0.031232 0.324191 101 64 66
0.595861 -0.035450 0.296381 101 65 68
0.608877 -0.044657 0.280680 101 66 67
0.613559 -0.036085 0.325039 101 66 67
0.608724 -0.031269 0.325945 101 66 67
0.635713 -0.050012 0.302821 101 66 69
0.614023 -0.031341 0.329441 101 67 67
0.608240 -0.036002 0.321302 102 65 67
0.626947 -0.045439 0.312255 102 66 69
0.611423 -0.040445 0.304798 102 67 68
0.639887 -0.054643 0.296430 102 67 70
0.630579 -0.049957 0.300712 102 67 70
0.621094 -0.031758 0.349424 102 68 68
0.628745 -0.041006 0.328672 102 68 70
0.618426 -0.049388 0.278904 103 65 69
0.600352 -0.040156 0.292493 103 65 69
0.614972 -0.044941 0.292136 103 66 67
0.645723 -0.054868 0.304652 103 66 68
0.606050 -0.040339 0.300289 103 66 69
0.617502 -0.040704 0.315807 103 67 68
0.623770 -0.054282 0.283253 103 67 70
0.624899 -0.049770 0.293566 103 67 70
0.629194 -0.054418 0.288218 103 68 71
0.634282 -0.054469 0.290065 103 68 71
0.651483 -0.055070 0.312043 104 66 68
0.620635 -0.045119 0.299323 104 66 68
0.662533 -0.060185 0.322354 104 66 70
0.622786 -0.040783 0.319202 104 67 69
0.659037 -0.068928 0.292941 104 69 72
0.656376 -0.059884 0.311874 105 67 71
0.673809 -0.083912 0.178228 105 68 71
0.669980 -0.090585 0.111412 106 62 63
0.649989 -0.059520 0.299178 107 67 71
0.628178 -0.058942 0.279053 107 67 73
0.660956 -0.064618 0.309083 107 69 73
0.644526 -0.059378 0.294231 108 68 72
0.633305 -0.059008 0.281358 108 68 74
0.638985 -0.059213 0.288483 108 68 74
0.655276 -0.064421 0.302515 108 70 74
0.644091 -0.064059 0.290446 109 69 73
0.671325 -0.076532 0.234483 109 71 73
0.497063 0.036204 0.418246 109 81 72
0.501323 0.036231 0.407464 109 81 72
0.643086 -0.068576 0.281699 110 70 74
0.648076 -0.068608 0.282717 110 70 74
0.649274 -0.064137 0.293030 110 70 74
0.638805 -0.063953 0.286897 110 70 76
0.671131 -0.087757 0.157119 110 72 74
0.633071 -0.063724 0.279273 111 71 77
0.671373 -0.084581 0.196540 111 73 75
0.654363 -0.077181 0.253610 111 74 79
0.646267 -0.072880 0.267144 112 72 77
0.668991 -0.077215 0.254631 112 74 76
0.668914 -0.088507 0.176946 115 76 77
0.492124 0.091603 0.492463 215 202 194
0.482576 0.086667 0.503760 217 202 187
0.572768 0.036346 0.363221 223 214 197
0.532771 0.015851 0.485376 227 217 197
0.564346 0.036302 0.380143 229 221 197
0.527725 0.015842 0.486603 230 216 199
0.745766 0.025857 0.501312 39 29 33
0.748474 0.025951 0.483271 39 29 33
0.694220 -0.027462 0.378602 39 35 29
0.719271 0.001060 0.456207 41 33 33
0.717107 -0.003729 0.439496 42 32 33
0.740980 -0.003582 0.428225 42 32 33
0.744037 -0.141159 -0.566643 43 31 32
0.715102 -0.036581 0.347415 44 31 31
0.730494 -0.003548 0.425579 44 32 34
0.742218 0.072310 0.633426 45 38 36
0.722928 -0.013185 0.406634 46 32 37
0.747840 0.056496 0.595158 46 37 35
0.721660 0.066883 0.597255 47 39 38
0.734201 0.035806 0.571512 47 39 45
0.728703 0.020612 0.529056 47 41 44
0.707001 0.093473 0.651402 49 42 43
0.687595 -0.049597 0.286934 50 41 37
0.701039 0.099264 0.691951 51 40 49
0.724297 0.072211 0.618269 51 41 39
0.686638 -0.057862 0.241400 52 37 35
0.719216 0.077444 0.620192 52 41 40
0.714206 0.077464 0.622732 52 42 41
0.690327 -0.018494 0.428328 63 58 55
0.686086 -0.046457 0.353363 69 59 55
0.684674 -0.054810 0.302533 78 64 64
0.677474 -0.067432 0.245161 81 56 57
0.678615 -0.071217 0.216127 83 59 61
0.679497 -0.063185 0.261283 86 63 64
0.597491 -0.021349 0.312438 90 68 64
0.652632 -0.036967 0.364809 90 68 67
0.593225 -0.021467 0.318887 90 69 66
0.666540 -0.037710 0.398367 90 74 72
0.672766 -0.037934 0.408458 90 74 72
0.659274 -0.027471 0.379097 90 77 72
0.660211 -0.012880 0.387166 90 79 72
0.680167 -0.059707 0.305691 91 65 67
0.642954 -0.032133 0.367364 92 66 66
0.670829 -0.042496 0.392165 92 72 71
0.649312 -0.032385 0.379458 93 68 67
0.676167 -0.071824 0.234746 93 68 69
0.643188 -0.027283 0.369449 93 69 68
0.659143 -0.037258 0.377973 93 72 70
0.664596 -0.042253 0.381831 93 72 71
0.636399 -0.022093 0.353205 93 75 70
0.642764 -0.036986 0.365670 94 65 65
0.675549 -0.068163 0.268503 94 65 66
0.648039 -0.037043 0.368239 94 66 66
0.604017 -0.021635 0.328123 94 69 65
0.680288 -0.056017 0.346597 94 71 72
0.650972 -0.041515 0.350357 95 67 68
0.677850 -0.063957 0.287029 95 67 69
0.672181 -0.051546 0.361647 95 69 71
0.677186 -0.051552 0.361871 95 70 71
0.669141 -0.047067 0.377958 95 70 71
0.636266 -0.036683 0.352013 96 66 67
0.645701 -0.041451 0.347645 97 66 67
0.593082 -0.026266 0.317461 97 67 70
0.635763 -0.031718 0.347468 97 68 68
0.657598 -0.041851 0.364672 97 69 70
0.670351 -0.056012 0.346421 97 69 71
0.662542 -0.046730 0.364348 97 71 72
0.640902 -0.041484 0.349074 98 66 68
0.597810 -0.026229 0.315578 98 67 69
0.588754 -0.026383 0.323434 98 69 70
0.635812 -0.026862 0.347914 98 70 70
0.676144 -0.056200 0.353299 98 70 72
0.666652 -0.051425 0.357012 99 68 69
0.630368 -0.036494 0.343490 99 68 69
0.678390 -0.060437 0.331146 99 70 73
0.673751 -0.072452 0.254020 99 71 72
0.613528 -0.021574 0.324753 99 77 72
0.649474 -0.046060 0.337313 100 67 69
0.635159 -0.041319 0.342022 100 67 69
0.591933 -0.030852 0.305995 100 67 70
0.667742 -0.060252 0.324709 100 68 70
0.659905 -0.051031 0.341906 100 69 69
0.630911 -0.031738 0.348454 100 70 70
0.674047 -0.069017 0.295788 100 70 71
0.658180 -0.055486 0.327232 101 68 68
0.664795 -0.055874 0.341392 101 68 68
0.625780 -0.036569 0.346877 101 68 68
0.608816 -0.026449 0.326825 101 68 69
0.655663 -0.046325 0.348014 101 68 70
0.587564 -0.030965 0.311406 101 69 70
0.632090 -0.027083 0.359218 101 71 71
0.676427 -0.064801 0.315161 101 71 74
0.630212 -0.022725 0.387838 101 78 73
0.627853 -0.032105 0.366034 102 69 69
0.613974 -0.026491 0.328972 102 69 69
0.672169 -0.064963 0.320582 102 69 71
0.674070 -0.060583 0.336228 102 70 72
0.583961 -0.026410 0.324813 102 74 74
0.577655 -0.021314 0.310502 102 84 79
0.621893 -0.027037 0.356898 103 70 70
0.670476 -0.069357 0.306648 103 70 72
0.665803 -0.064603 0.308580 103 70 72
0.671798 -0.073217 0.277480 103 73 74
0.629724 -0.027554 0.383323 104 71 71
0.664356 -0.069040 0.296537 104 71 73
0.498503 0.046118 0.438164 104 82 78
0.497983 0.051091 0.430976 104 83 76
0.495700 0.101392 0.470256 104 88 84
0.668913 -0.073749 0.293784 105 72 74
0.653517 -0.068759 0.287547 106 71 74
0.487104 0.051077 0.420369 107 84 76
0.672340 -0.080185 0.204246 108 73 74
0.663187 -0.073521 0.286811 108 75 77
0.498376 0.041137 0.436405 108 81 73
0.487636 0.046118 0.428014 108 84 78
0.485619 0.051146 0.472659 108 85 76
0.490637 0.051049 0.398891 108 85 76
0.506493 0.051153 0.477707 108 87 80
0.503502 0.041136 0.437067 109 82 74
0.485461 0.046118 0.470339 109 85 77
0.651414 -0.072962 0.269655 110 74 78
0.660688 -0.077601 0.266010 110 75 78
0.666204 -0.077787 0.271487 110 75 78
0.657135 -0.073199 0.276938 111 76 79
0.480260 0.046118 0.469168 111 88 79
0.480698 0.051150 0.475710 111 88 79
0.662947 -0.081609 0.244683 112 76 79
0.657435 -0.081406 0.238941 112 77 79
0.666331 -0.081196 0.232975 113 76 78
0.669161 -0.080635 0.217048 113 76 78
0.668401 -0.085107 0.210933 114 78 80
0.664928 -0.085494 0.221552 114 79 80
0.410626 0.099873 0.738531 115 91 83
0.404669 0.099732 0.727753 117 90 85
0.428181 0.089358 0.761007 119 96 86
0.445420 0.099026 0.673748 121 104 94
0.448952 0.098594 0.640702 121 104 94
0.403934 0.104854 0.711185 128 102 96
0.682947 -0.068719 0.139519 46 32 34
0.679587 -0.069052 0.149730 53 36 38
0.679678 -0.070270 0.187085 66 47 49
0.749293 -0.169620 -0.578505 99 59 63
0.747456 -0.166730 -0.568381 91 54 62
0.747642 -0.163135 -0.567385 92 56 64
0.748186 -0.159677 -0.564473 85 63 63
0.748354 -0.156067 -0.563573 67 46 46
0.747653 -0.152126 -0.567329 61 44 46
0.747213 -0.148293 -0.569685 50 35 38
0.744037 -0.141159 -0.566643 43 31 32
0.742986 -0.148111 -0.572316 54 37 37
0.739829 -0.151996 -0.569171 69 50 49
0.735832 -0.151897 -0.570580 75 54 54
0.730921 -0.151442 -0.577047 90 68 68
0.727230 -0.151457 -0.576835 102 77 78
0.724948 -0.146922 -0.589512 70 46 47
0.728666 -0.143282 -0.589479 44 29 31
0.724206 -0.139364 -0.593633 44 28 31
0.727487 -0.134590 -0.554529 39 26 27
0.727378 -0.132191 -0.533949 34 22 24
0.729094 -0.130394 -0.502691 34 20 24
0.733907 -0.130734 -0.497142 34 22 26
0.738122 -0.128398 -0.473376 35 23 28
0.739689 -0.126416 -0.442511 32 21 24
0.738992 -0.123637 -0.424128 29 19 20
0.744988 -0.121705 -0.389811 29 19 20
0.743819 -0.118690 -0.373606 31 20 23
0.746039 -0.116700 -0.337454 30 18 20
0.747696 -0.114473 -0.304040 29 17 20
0.746951 -0.111464 -0.284277 28 18 22
0.748249 -0.109021 -0.252051 29 18 23
0.748526 -0.106224 -0.225430 28 18 22
0.746963 -0.104062 -0.183791 28 18 22
0.749165 -0.101701 -0.144132 29 17 18
0.747574 -0.098752 -0.016421 35 22 19
0.746692 -0.096557 0.036162 36 22 22
0.748193 -0.093706 0.075914 42 23 27
0.749120 -0.090630 0.112561 40 22 25
0.747764 -0.086905 0.134579 41 23 22
0.746602 -0.083184 0.158302 42 24 24
0.749143 -0.079171 0.175460 42 23 25
0.748613 -0.075501 0.204078 45 24 23
0.749354 -0.072059 0.241957 46 25 26
0.746755 -0.067814 0.257358 48 26 26
0.748304 -0.063389 0.268109 48 27 23
0.744907 -0.058921 0.278311 48 28 28
0.746774 -0.054505 0.291386 46 26 29
0.747550 -0.049855 0.296822 45 28 25
0.749150 -0.045334 0.308026 43 27 23
0.746864 -0.040956 0.326550 45 28 29
0.748922 -0.036441 0.341095 43 26 27
0.746120 -0.031905 0.356433 45 30 29
0.748031 -0.027295 0.370069 43 29 28
0.745022 -0.027574 0.384336 46 30 29
0.739976 -0.027569 0.384061 48 32 31
0.734660 -0.022615 0.381801 46 33 30
0.735363 -0.017793 0.386959 44 32 29
0.731159 -0.017895 0.392954 45 32 30
0.730104 -0.022676 0.385130 46 33 30
0.724417 -0.022583 0.380047 46 33 30
0.723563 -0.027365 0.373653 48 32 34
0.722081 -0.032032 0.362547 47 30 33
0.721004 -0.036738 0.354480 48 31 32
0.715102 -0.036581 0.347415 44 31 31
0.717331 -0.040965 0.326959 46 29 30
0.718627 -0.045135 0.299994 45 29 30
0.714647 -0.049168 0.270467 45 28 30
0.708839 -0.048982 0.263339 44 28 30
0.706606 -0.053279 0.246608 45 28 31
0.702800 -0.057193 0.218092 44 29 33
0.705603 -0.061448 0.203375 44 28 32
0.702316 -0.065361 0.178995 44 29 32
0.704536 -0.069403 0.160518 46 29 30
0.706567 -0.073363 0.141031 47 31 33
0.702173 -0.076833 0.109061 47 31 33
0.699170 -0.080589 0.087220 50 31 34
0.692997 -0.080170 0.075757 49 32 35
0.687856 -0.080023 0.071732 51 32 36
0.685340 -0.076066 0.087283 50 33 36
0.689694 -0.072647 0.119907 48 31 34
0.684557 -0.072524 0.116271 49 32 33
0.682947 -0.068719 0.139519 46 32 34
0.681755 -0.064969 0.166476 48 31 32
0.679497 -0.063185 0.261283 86 63 64
0.680167 -0.059707 0.305691 91 65 67
0.686638 -0.057862 0.241400 52 37 35
0.684674 -0.054810 0.302533 78 64 64
0.680288 -0.056017 0.346597 94 71 72
0.677186 -0.051552 0.361871 95 70 71
0.672181 -0.051546 0.361647 95 69 71
0.669141 -0.047067 0.377958 95 70 71
0.670829 -0.042496 0.392165 92 72 71
0.672766 -0.037934 0.408458 90 74 72
0.666540 -0.037710 0.398367 90 74 72
0.659143 -0.037258 0.377973 93 72 70
0.652632 -0.036967 0.364809 90 68 67
0.649312 -0.032385 0.379458 93 68 67
0.643188 -0.027283 0.369449 93 69 68
0.635812 -0.026862 0.347914 98 70 70
0.636399 -0.022093 0.353205 93 75 70
0.630212 -0.022725 0.387838 101 78 73
0.629724 -0.027554 0.383323 104 71 71
0.621893 -0.027037 0.356898 103 70 70
0.613974 -0.026491 0.328972 102 69 69
0.613528 -0.021574 0.324753 99 77 72
0.608816 -0.026449 0.326825 101 68 69
0.604111 -0.026492 0.329035 99 66 68
0.604017 -0.021635 0.328123 94 69 65
0.597491 -0.021349 0.312438 90 68 64
0.593225 -0.021467 0.318887 90 69 66
0.593082 -0.026266 0.317461 97 67 70
0.588754 -0.026383 0.323434 98 69 70
0.583961 -0.026410 0.324813 102 74 74
0.578460 -0.026294 0.318866 100 76 74
0.578136 -0.031051 0.315500 99 71 71
0.572828 -0.030965 0.311377 97 70 70
0.566181 -0.030578 0.292821 95 73 73
0.561178 -0.035343 0.291566 107 84 85
0.556712 -0.035445 0.296168 113 88 89
0.556174 -0.030524 0.290250 108 83 84
0.555971 -0.025690 0.288014 95 74 72
0.551493 -0.020985 0.292506 96 78 75
0.547588 -0.025995 0.303619 118 93 92
0.543388 -0.021335 0.311688 118 94 93
0.538231 -0.016469 0.308822 104 83 79
0.532011 -0.016205 0.293244 106 84 81
0.528583 -0.011686 0.310846 111 85 79
0.529349 -0.007867 0.380409 127 95 84
0.524564 -0.007906 0.383121 115 82 71
0.522409 -0.012397 0.356270 112 79 78
0.516760 -0.012262 0.347683 116 80 84
0.515067 -0.008001 0.389778 119 84 85
0.516490 -0.003320 0.408114 122 91 83
0.513357 0.001330 0.433107 123 90 86
0.507053 0.001523 0.416689 122 87 88
0.506409 0.006567 0.408101 114 82 80
0.505309 0.011645 0.393417 116 87 83
0.504126 0.016693 0.377637 113 88 79
0.498708 0.016737 0.371946 110 80 77
0.497362 0.021753 0.353661 110 82 77
0.497416 0.026622 0.354392 107 80 75
0.498839 0.031420 0.373726 108 82 76
0.501323 0.036231 0.407464 109 81 72
0.503502 0.041136 0.437067 109 82 74
0.498503 0.046118 0.438164 104 82 78
0.497983 0.051091 0.430976 104 83 76
0.490637 0.051049 0.398891 108 85 76
0.487104 0.051077 0.420369 107 84 76
0.485619 0.051146 0.472659 108 85 76
0.480698 0.051150 0.475710 111 88 79
0.480260 0.046118 0.469168 111 88 79
0.479241 0.041115 0.453949 109 87 82
0.475048 0.041097 0.467791 111 87 80
0.472068 0.041054 0.501052 113 87 81
0.470091 0.040989 0.551658 121 92 86
0.468030 0.040923 0.603088 129 100 94
0.467848 0.046121 0.600126 132 105 101
0.468400 0.051327 0.609084 126 100 95
0.471495 0.051172 0.492148 108 85 76
0.468219 0.051439 0.694083 136 108 106
0.463480 0.051455 0.705635 138 106 108
0.457960 0.051453 0.704177 130 96 100
0.453394 0.056823 0.719587 132 104 103
0.448546 0.056852 0.730598 134 104 105
0.448262 0.062197 0.725434 131 103 102
0.441980 0.062136 0.710165 135 102 101
0.437011 0.062172 0.719186 133 100 99
0.432601 0.067629 0.739649 124 95 89
0.433082 0.073067 0.749085 124 96 89
0.433656 0.078544 0.760351 125 98 91
0.427965 0.078515 0.756672 118 91 84
0.421566 0.078370 0.738140 117 88 84
0.421242 0.083683 0.731437 114 88 82
0.415850 0.083698 0.733095 118 89 85
0.415781 0.089050 0.731627 115 88 82
0.411633 0.089353 0.760571 121 88 88
0.411150 0.094632 0.749994 118 91 86
0.410626 0.099873 0.738531 115 91 83
0.404669 0.099732 0.727753 117 90 85
0.403934 0.104854 0.711185 128 102 96
0.399007 0.105027 0.723187 123 94 90
0.399330 0.099770 0.730698 117 87 86
0.399901 0.094561 0.743959 120 89 89
0.400558 0.089339 0.759241 127 92 95
0.720411 0.110295 0.717629 39 30 22
0.746055 0.121543 0.747883 41 31 21
0.740775 0.126963 0.749577 41 32 23
0.747103 0.110225 0.713215 41 36 25
0.736519 0.132561 0.759542 42 33 27
0.742092 0.110279 0.716637 42 37 25
0.748648 0.127331 0.768329 45 36 28
0.745150 0.180569 0.740749 53 40 35
0.670645 0.175842 0.761525 54 39 36
0.734185 0.109972 0.697062 40 35 22
0.686259 0.164797 0.753356 49 38 35
0.745960 0.165876 0.790888 50 38 37
0.733879 0.154780 0.782889 50 41 37
0.718615 0.165972 0.794257 50 41 37
0.684739 0.153655 0.739812 51 37 39
0.735699 0.160619 0.797706 52 40 39
0.721049 0.172035 0.814742 53 42 39
0.743702 0.177593 0.817399 53 42 39
0.665214 0.175865 0.762263 54 41 38
0.710833 0.177765 0.822881 54 41 38
0.727615 0.183251 0.822936 55 44 41
0.656055 0.181855 0.780138 58 40 42
0.662325 0.182082 0.787104 58 40 42
0.661873 0.158790 0.731000 60 43 53
0.687381 0.132641 0.763360 62 49 61
0.652848 0.170072 0.749364 63 49 56
0.651383 0.124676 0.632843 93 87 93
0.399007 0.105027 0.723187 123 94 90
0.399128 0.110426 0.725986 138 109 105
0.741354 0.178419 0.843746 53 41 40
0.735807 0.178437 0.844342 53 41 41
0.729747 0.178322 0.840675 54 43 40
0.758168 -0.106579 -0.218062 27 20 18
0.752942 -0.112022 -0.273310 28 18 22
0.759511 -0.112742 -0.259156 28 18 22
0.751088 -0.104026 -0.184562 28 18 22
0.754263 -0.115223 -0.289657 29 17 19
0.752740 -0.109117 -0.250106 29 19 23
0.755441 -0.104054 -0.183957 29 19 23
0.759468 -0.100986 -0.159803 29 19 23
0.772083 -0.096978 -0.057634 29 19 23
0.752211 -0.101351 -0.151806 30 18 20
0.761095 -0.099539 -0.097658 30 18 20
0.755590 -0.101098 -0.157343 30 18 21
0.760503 -0.097427 -0.047218 30 18 23
0.764096 -0.099173 -0.105921 30 19 21
0.771299 -0.091432 0.019667 30 20 21
0.769019 -0.081821 0.120970 30 20 23
0.758370 -0.109543 -0.241517 30 20 24
0.764822 -0.110199 -0.228286 30 20 24
0.768802 -0.097277 -0.050688 30 20 24
0.753653 -0.099894 -0.089657 31 19 19
0.757497 -0.099749 -0.092933 31 19 20
0.773847 -0.088724 0.063840 31 19 20
0.768867 -0.091960 0.032732 31 20 20
0.776505 -0.088257 0.051919 31 20 23
0.779096 -0.087782 0.039781 31 20 23
0.767809 -0.094966 -0.001953 31 20 24
0.771315 -0.094713 -0.008026 31 20 24
0.764396 -0.097284 -0.050542 31 20 25
0.757189 -0.097728 -0.040221 32 19 21
0.765923 -0.092367 0.042783 32 20 20
0.770531 -0.089036 0.071811 32 20 20
0.776821 -0.084932 0.082416 32 20 22
0.759910 -0.115685 -0.280800 32 21 22
0.777038 -0.081523 0.112800 32 21 24
0.779696 -0.081069 0.100372 32 21 24
0.767185 -0.074336 0.169728 32 21 24
0.750019 -0.100100 -0.085014 33 19 19
0.763067 -0.096083 0.024795 33 19 21
0.765009 -0.095408 0.008631 33 19 21
0.762610 -0.089353 0.079912 33 20 22
0.765922 -0.089031 0.071704 33 20 22
0.758880 -0.086187 0.115600 33 21 23
0.763748 -0.086240 0.117004 33 21 23
0.773802 -0.085310 0.092415 33 21 23
0.761794 -0.082319 0.134592 33 21 24
0.766699 -0.082373 0.136073 33 21 24
0.782819 -0.084185 0.062659 33 21 25
0.780056 -0.084610 0.073921 33 21 26
0.763848 -0.078203 0.147978 33 21 26
0.768810 -0.078264 0.149715 33 21 26
0.772271 -0.074416 0.172080 33 22 24
0.751326 -0.096582 0.036741 34 20 20
0.755642 -0.098513 -0.021975 34 20 22
0.761743 -0.092463 0.045162 34 20 22
0.750948 -0.093221 0.063906 34 20 25
0.755742 -0.093276 0.065272 34 20 25
0.752367 -0.098839 -0.014400 34 21 18
0.759516 -0.096342 0.031013 34 21 19
0.801789 -0.007441 0.039451 34 25 21
0.758202 -0.092726 0.051671 35 21 23
0.766703 -0.070613 0.197609 35 21 23
0.756060 -0.090030 0.097225 35 21 25
0.760931 -0.090092 0.098802 35 21 25
0.763478 -0.074563 0.176405 35 21 25
0.760040 -0.078408 0.153804 35 21 26
0.755137 -0.096385 0.032033 35 22 19
0.762730 -0.062388 0.234730 35 23 23
0.761643 -0.066878 0.227456 36 21 22
0.760479 -0.074953 0.187900 36 21 25
0.751661 -0.086709 0.129411 36 22 22
0.754641 -0.082851 0.149176 36 22 23
0.757914 -0.082510 0.139824 36 22 23
0.757032 -0.078804 0.165034 36 22 26
0.765167 -0.066613 0.218997 36 24 27
0.763794 -0.057875 0.241845 36 24 28
0.817686 0.041826 -0.098654 36 25 22
0.763504 -0.070950 0.207960 37 22 24
0.755143 -0.086414 0.121606 37 23 23
0.759476 -0.062703 0.245229 37 24 23
0.821397 0.041830 -0.102239 37 28 24
0.758250 -0.067175 0.236952 38 22 22
0.760747 -0.058218 0.253810 38 25 29
0.762031 -0.053713 0.262480 38 25 30
0.752513 -0.090308 0.104320 39 21 24
0.757203 -0.075286 0.197740 40 21 23
0.760196 -0.071270 0.217769 40 21 23
0.757534 -0.058535 0.264858 40 25 28
0.760858 -0.044826 0.287502 40 26 28
0.759543 -0.049378 0.278546 40 26 29
0.758957 -0.054044 0.274551 40 26 31
0.811596 0.050476 -0.034050 40 29 26
0.756608 -0.071534 0.225862 41 22 23
0.753607 -0.079108 0.173679 41 22 24
0.755981 -0.054399 0.287518 41 25 29
0.812428 0.050516 -0.003811 41 31 27
0.846170 0.083733 -0.176594 41 32 26
0.751072 -0.083127 0.156719 42 23 23
0.753156 -0.075450 0.202554 42 23 24
0.756041 -0.062987 0.254684 42 26 22
0.754310 -0.058856 0.276030 42 26 28
0.756806 -0.049760 0.293190 42 27 27
0.758153 -0.045196 0.302452 42 27 27
0.846825 0.087958 -0.173228 42 33 27
0.754330 -0.067365 0.243025 43 25 23
0.753920 -0.045311 0.307078 43 27 23
0.752704 -0.063296 0.264989 44 26 22
0.752489 -0.049864 0.297145 44 27 24
0.752224 -0.071626 0.228681 45 24 24
0.751238 -0.067737 0.254909 45 26 24
0.751622 -0.054498 0.291129 45 26 28
0.844890 0.088116 -0.161170 45 36 30
0.750703 0.099355 0.698956 45 39 30
0.749928 -0.058952 0.279378 46 27 27
0.749669 0.093938 0.690969 50 41 33
0.754103 -0.106620 -0.217218 28 19 21
0.780932 -0.095857 -0.083678 28 23 25
0.847198 0.091857 -0.193095 40 30 29
0.845914 0.095914 -0.199643 40 30 29
0.812937 0.046110 0.025030 44 38 31
0.810154 -0.009677 -0.091943 45 37 32
0.808349 -0.005613 -0.077455 45 37 32
0.810593 0.041650 0.037738 45 38 36
0.838122 0.088836 -0.106057 45 40 33
0.840630 0.092641 -0.138592 46 37 35
0.812877 0.055661 0.277256 46 37 39
0.805981 0.055957 0.389900 47 39 38
0.754512 0.093887 0.686587 50 40 37
0.801858 0.102780 0.566835 50 40 37
0.806266 0.097096 0.526056 50 41 37
0.807597 0.102322 0.534962 50 41 37
0.799971 0.119325 0.626610 51 37 37
0.803056 0.119043 0.611171 51 37 37
0.800721 0.124656 0.631816 51 37 37
0.803286 0.129494 0.612757 51 37 37
0.788205 0.114609 0.656764 51 37 39
0.783632 0.119982 0.662510 51 37 39
0.788395 0.119902 0.658123 51 37 39
0.800711 0.129891 0.631749 52 38 38
0.780932 0.082524 0.604866 52 42 41
0.777640 0.087876 0.619344 53 42 39
0.782455 0.087838 0.615731 53 42 39
0.778711 0.093186 0.627060 53 42 39
0.808115 -0.009901 -0.078772 57 48 44
0.819165 0.046109 -0.041520 61 47 49
0.752492 -0.036227 0.331433 40 26 27
0.749931 -0.031733 0.348228 42 28 28
0.751182 -0.027041 0.357072 42 28 28
0.796429 0.018042 0.204902 36 30 30
0.798002 0.022657 0.214730 39 29 33
0.800405 0.022753 0.199985 39 29 33
0.800510 0.022939 0.171366 39 29 33
0.804899 0.032103 0.198336 39 29 33
0.804955 0.036539 0.288653 40 32 36
0.914130 0.026864 -0.431943 40 39 38
0.753450 -0.031523 0.338139 41 28 28
0.806912 -0.103083 -0.204646 41 41 38
0.805777 -0.099711 -0.187734 41 41 38
0.913558 0.023036 -0.434382 41 41 38
0.792047 0.022103 0.299866 42 32 33
0.806614 0.032287 0.151137 42 32 33
0.908408 0.026805 -0.422793 42 41 41
0.808331 -0.099290 -0.196935 43 43 39
0.822712 0.077978 0.108177 44 35 32
0.817736 0.064170 0.079256 46 37 34
0.819929 0.068768 0.092001 46 37 34
0.817610 0.068335 0.025851 46 37 34
0.823997 0.077087 0.010764 46 37 34
0.819899 0.068251 0.013112 46 37 35
0.822670 0.078477 0.162718 46 37 35
0.828578 -0.063591 -0.266962 47 47 47
0.829437 -0.063001 -0.283713 47 47 47
0.825652 -0.060474 -0.239058 47 47 47
0.830478 -0.059140 -0.278397 47 47 47
0.826088 -0.056449 -0.236791 47 47 47
0.831469 -0.055257 -0.273341 47 47 47
0.826588 -0.052428 -0.234184 47 47 47
0.829727 -0.052259 -0.239598 47 47 47
0.831304 -0.051841 -0.252962 47 47 47
0.832051 -0.051296 -0.270377 47 47 47
0.827089 -0.048401 -0.231577 47 47 47
0.829959 -0.048197 -0.238395 47 47 47
0.831735 -0.047826 -0.250743 47 47 47
0.832555 -0.047315 -0.267801 47 47 47
0.827402 -0.044339 -0.229947 47 47 47
0.829976 -0.044099 -0.238307 47 47 47
0.831757 -0.043745 -0.250631 47 47 47
0.827621 -0.040259 -0.228803 47 47 47
0.879414 -0.036243 -0.375444 47 47 47
0.882007 -0.036068 -0.381831 47 47 47
0.876752 -0.032482 -0.369299 47 47 47
0.879047 -0.032278 -0.377123 47 47 47
0.882048 -0.032160 -0.381645 47 47 47
0.866307 -0.029205 -0.342983 47 47 47
0.872061 -0.028936 -0.353827 47 47 47
0.879191 -0.028375 -0.376466 47 47 47
0.882432 -0.028290 -0.379899 47 47 47
0.872404 -0.025024 -0.352230 47 47 47
0.879804 -0.024521 -0.373658 47 47 47
0.882976 -0.024433 -0.377423 47 47 47
0.885439 -0.024271 -0.384346 47 47 47
0.866733 -0.021322 -0.340975 47 47 47
0.868942 -0.021132 -0.349575 47 47 47
0.872292 -0.021061 -0.352754 47 47 47
0.874766 -0.020902 -0.359945 47 47 47
0.877420 -0.020763 -0.366225 47 47 47
0.880476 -0.020666 -0.370588 47 47 47
0.883412 -0.020558 -0.375442 47 47 47
0.885852 -0.020402 -0.382482 47 47 47
0.868909 -0.017173 -0.349728 47 47 47
0.871780 -0.017061 -0.355138 47 47 47
0.874415 -0.016926 -0.361573 47 47 47
0.877596 -0.016846 -0.365415 47 47 47
0.880819 -0.016771 -0.369016 47 47 47
0.866524 -0.013370 -0.341963 47 47 47
0.868893 -0.013217 -0.349806 47 47 47
0.813481 0.065548 0.342362 48 40 37
0.851747 -0.183548 -0.586992 28 25 25
0.846776 -0.183087 -0.592595 29 25 25
0.848282 -0.179993 -0.585868 30 25 27
0.812887 -0.144044 -0.523282 37 35 36
0.816280 -0.143914 -0.525245 37 35 36
0.819632 -0.143772 -0.527377 37 35 36
0.823756 -0.143876 -0.525814 37 35 36
0.807313 -0.140964 -0.513344 37 35 36
0.814333 -0.140772 -0.516288 37 35 36
0.820938 -0.140456 -0.521135 37 35 36
0.824645 -0.140426 -0.521596 37 35 36
0.780400 -0.135899 -0.474735 37 35 36
0.784592 -0.136005 -0.473049 37 35 36
0.784523 -0.133424 -0.453263 37 35 36
0.780838 -0.141039 -0.512198 38 33 35
0.784193 -0.140886 -0.514550 38 33 35
0.815076 -0.088358 -0.160280 45 45 41
0.817253 -0.087883 -0.171647 45 45 41
0.818161 -0.087132 -0.189647 45 45 41
0.816202 -0.084403 -0.154164 45 45 41
0.930941 -0.236524 -0.567643 26 17 18
0.914895 -0.228755 -0.572019 29 19 20
0.905903 -0.224489 -0.578252 29 20 18
0.910052 -0.228313 -0.576534 30 20 21
0.903212 -0.224901 -0.573977 31 20 17
0.896245 -0.221438 -0.571893 33 22 22
0.858997 -0.203888 -0.603995 33 22 22
0.850746 -0.199927 -0.607807 33 23 22
0.855489 -0.200338 -0.603177 33 23 22
0.860012 -0.200658 -0.599568 33 23 22
0.842489 -0.195965 -0.611737 37 24 24
0.825898 -0.188019 -0.620240 39 26 29
0.804440 -0.177433 -0.617521 41 27 32
0.779900 -0.167071 -0.611619 47 31 34
0.774280 -0.164124 -0.602827 48 31 37
0.767195 -0.160615 -0.601274 51 31 35
0.937611 -0.225204 -0.570838 21 20 20
0.914020 -0.184487 -0.575569 24 24 23
0.914378 -0.180944 -0.574116 24 24 23
0.939880 -0.240777 -0.561924 25 17 17
0.925770 -0.232288 -0.573345 26 19 22
0.921279 -0.228328 -0.576384 26 19 22
0.891006 -0.209867 -0.578194 28 23 25
0.894456 -0.209762 -0.579353 28 23 25
0.879406 -0.198742 -0.579970 28 25 25
0.857020 -0.184113 -0.580120 28 25 25
0.858759 -0.190682 -0.588835 30 24 24
0.882916 -0.202316 -0.580882 30 25 27
0.810349 -0.162812 -0.571729 34 31 30
0.829299 -0.160510 -0.553069 34 31 32
0.835251 -0.188789 -0.611158 35 25 28
0.810746 -0.168922 -0.587580 35 29 32
0.817549 -0.184028 -0.624893 36 26 25
0.823006 -0.184716 -0.616652 36 26 25
0.827340 -0.184968 -0.613642 36 26 25
0.800665 -0.153633 -0.545934 38 33 35
0.784067 -0.163639 -0.609233 39 29 33
0.772503 -0.155305 -0.574188 41 29 33
0.769840 -0.152030 -0.568694 42 32 33
0.762753 -0.152175 -0.566641 44 32 34
0.777215 -0.163836 -0.606627 46 32 37
0.771438 -0.160820 -0.598505 46 32 37
0.762870 -0.158148 -0.585397 52 38 43
0.942930 -0.244173 -0.564656 26 17 17
0.939880 -0.240777 -0.561924 25 17 17
0.936533 -0.240938 -0.560335 27 17 18
0.932334 -0.240758 -0.562111 28 17 18
0.930941 -0.236524 -0.567643 26 17 18
0.926162 -0.236109 -0.571780 28 18 19
0.925770 -0.232288 -0.573345 26 19 22
0.921279 -0.228328 -0.576384 26 19 22
0.914895 -0.228755 -0.572019 29 19 20
0.910052 -0.228313 -0.576534 30 20 21
0.906084 -0.228218 -0.577509 31 20 21
0.905903 -0.224489 -0.578252 29 20 18
0.903212 -0.224901 -0.573977 31 20 17
0.900568 -0.225337 -0.569462 34 21 20
0.897016 -0.225413 -0.568678 36 22 22
0.896245 -0.221438 -0.571893 33 22 22
0.892384 -0.221388 -0.572416 35 22 21
0.888089 -0.221163 -0.574776 37 23 21
0.883496 -0.220815 -0.578426 39 22 21
0.883077 -0.216993 -0.580199 32 22 21
0.879016 -0.216858 -0.581631 33 21 21
0.874377 -0.212842 -0.585558 34 22 23
0.867760 -0.211684 -0.598059 34 22 22
0.862314 -0.210983 -0.605627 37 21 22
0.858761 -0.207417 -0.605023 35 23 23
0.858997 -0.203888 -0.603995 33 22 22
0.860012 -0.200658 -0.599568 33 23 22
0.855489 -0.200338 -0.603177 33 23 22
0.850746 -0.199927 -0.607807 33 23 22
0.845745 -0.199410 -0.613635 35 23 22
0.842489 -0.195965 -0.611737 37 24 24
0.837653 -0.195513 -0.616916 39 25 26
0.835251 -0.188789 -0.611158 35 25 28
0.828490 -0.191198 -0.625150 38 25 30
0.825898 -0.188019 -0.620240 39 26 29
0.827340 -0.184968 -0.613642 36 26 25
0.823006 -0.184716 -0.616652 36 26 25
0.817549 -0.184028 -0.624893 36 26 25
0.814992 -0.186620 -0.636734 44 24 26
0.810824 -0.186415 -0.639149 46 26 27
0.807476 -0.180791 -0.620536 42 27 28
0.804440 -0.177433 -0.617521 41 27 32
0.798891 -0.176709 -0.626471 42 28 29
0.791777 -0.173198 -0.625440 44 28 29
0.786902 -0.172728 -0.631336 47 31 32
0.783204 -0.172713 -0.631533 51 31 33
0.779900 -0.167071 -0.611619 47 31 34
0.777215 -0.163836 -0.606627 46 32 37
0.774280 -0.164124 -0.602827 48 31 37
0.771438 -0.160820 -0.598505 46 32 37
0.772503 -0.155305 -0.574188 41 29 33
0.769840 -0.152030 -0.568694 42 32 33
0.767486 -0.148857 -0.561522 40 29 32
0.762753 -0.152175 -0.566641 44 32 34
0.762870 -0.158148 -0.585397 52 38 43
0.757740 -0.159032 -0.573301 64 45 49
0.754218 -0.159113 -0.572181 69 50 53
0.751290 -0.159427 -0.567886 79 58 58
0.750508 -0.162788 -0.572047 91 55 63
0.749905 -0.166210 -0.575252 89 53 61
0.848057 0.114137 -0.313601 27 20 18
0.867174 0.113155 -0.357861 27 20 18
0.853300 0.121791 -0.327715 28 18 17
0.854446 0.121443 -0.341732 28 18 17
0.851162 0.122023 -0.318349 28 18 19
0.854978 0.121027 -0.358502 28 18 19
0.853762 0.117860 -0.325480 28 19 18
0.854761 0.117513 -0.340217 28 19 18
0.861938 0.116964 -0.363597 29 18 19
0.858418 0.117019 -0.361253 29 19 20
0.865013 0.109394 -0.349090 29 20 19
0.849019 0.110234 -0.308887 29 21 18
0.851921 0.110113 -0.314653 29 21 19
0.870656 0.109158 -0.360373 30 20 18
0.872897 0.108986 -0.368600 30 20 18
0.843692 0.123118 -0.274226 30 20 19
0.881661 0.100525 -0.401421 30 20 20
0.878360 0.104472 -0.398411 30 20 21
0.877892 0.100873 -0.382408 30 20 23
0.875774 0.104954 -0.373800 30 20 24
0.848044 0.110555 -0.293533 30 21 20
0.868483 0.109338 -0.351728 30 21 20
0.855216 0.110034 -0.318442 30 22 20
0.888960 0.096292 -0.421795 30 24 19
0.891896 0.096217 -0.426206 30 24 19
0.830566 0.135780 -0.256752 31 19 24
0.828744 0.139575 -0.266108 31 19 24
0.821728 0.141763 -0.193254 31 20 21
0.833206 0.131492 -0.264484 31 20 25
0.878255 0.096989 -0.380744 31 21 20
0.844106 0.119113 -0.272158 31 21 20
0.841994 0.123422 -0.261976 31 21 20
0.826693 0.133550 -0.189420 31 21 20
0.850690 0.106386 -0.300691 31 22 18
0.852870 0.106203 -0.310026 31 22 18
0.831588 0.135321 -0.272738 32 19 23
0.826941 0.139939 -0.254006 32 19 23
0.865128 0.105449 -0.348545 32 20 20
0.825371 0.137514 -0.196403 32 20 20
0.824360 0.141508 -0.201744 32 20 20
0.799051 0.158112 -0.201400 32 20 20
0.819573 0.145563 -0.204716 32 20 21
0.816680 0.145786 -0.197582 32 20 22
0.832851 0.132026 -0.245014 32 20 25
0.859390 0.105667 -0.337422 32 21 18
0.862054 0.105538 -0.343991 32 21 18
0.862688 0.101631 -0.340982 32 21 20
0.822671 0.137748 -0.188237 32 21 22
0.817305 0.142421 -0.171364 32 21 23
0.815147 0.146243 -0.183007 32 21 23
0.813015 0.150040 -0.194510 32 21 23
0.834661 0.128177 -0.235713 32 21 24
0.836402 0.123764 -0.248176 32 22 20
0.875445 0.097081 -0.375313 32 22 21
0.865349 0.101511 -0.347503 32 22 21
0.838817 0.123544 -0.257051 32 22 21
0.828526 0.129056 -0.202070 32 22 21
0.805133 0.151685 -0.144128 32 22 21
0.879607 0.096785 -0.392741 32 23 19
0.882445 0.096698 -0.397875 32 23 19
0.855332 0.106050 -0.317879 32 23 19
0.856766 0.105801 -0.330575 32 23 19
0.857044 0.101845 -0.329239 32 23 20
0.827981 0.129564 -0.182621 32 23 21
0.833973 0.135066 -0.281601 33 19 21
0.826280 0.140486 -0.235791 33 19 21
0.799970 0.157473 -0.219518 33 20 19
0.826354 0.137024 -0.213462 33 20 21
0.825808 0.141070 -0.216328 33 20 21
0.828564 0.136100 -0.245611 33 20 23
0.868431 0.105382 -0.351969 33 21 21
0.815516 0.142825 -0.157893 33 21 23
0.830757 0.132320 -0.234271 33 21 25
0.813256 0.143158 -0.146796 33 22 21
0.807170 0.147816 -0.132814 33 22 22
0.827260 0.133021 -0.208712 33 22 23
0.818189 0.138370 -0.166596 33 22 23
0.810611 0.146924 -0.161273 33 22 23
0.860092 0.101757 -0.334066 33 23 21
0.854084 0.102305 -0.304115 33 23 22
0.817730 0.134745 -0.145862 33 23 22
0.805794 0.152592 -0.116337 33 23 22
0.832515 0.124878 -0.203314 33 24 18
0.831026 0.125234 -0.188961 33 24 19
0.836312 0.124284 -0.227233 33 24 20
0.837464 0.120308 -0.221317 33 25 22
0.826881 0.136472 -0.232658 34 20 22
0.802204 0.156169 -0.136427 34 20 22
0.803820 0.154064 -0.198444 34 21 20
0.801746 0.155269 -0.162944 34 21 22
0.801564 0.156873 -0.115709 34 22 21
0.802637 0.154635 -0.181629 34 22 22
0.816471 0.138769 -0.152702 34 22 23
0.828119 0.132541 -0.226210 34 22 24
0.811576 0.143592 -0.132344 34 23 20
0.801260 0.157651 -0.092765 34 23 20
0.810470 0.144129 -0.114482 34 23 21
0.814690 0.139164 -0.138950 34 23 22
0.855258 0.102047 -0.318237 34 24 22
0.830175 0.125679 -0.171034 34 25 21
0.833643 0.121392 -0.175235 34 25 22
0.835204 0.121061 -0.189313 34 26 22
0.798896 0.158910 -0.178771 35 21 23
0.832795 0.128490 -0.223728 35 23 25
0.813646 0.139682 -0.120930 35 24 22
0.835064 0.124662 -0.211994 35 26 21
0.803370 0.156520 -0.246547 36 19 18
0.805804 0.153649 -0.210664 36 20 18
0.808175 0.153311 -0.220624 36 20 19
0.811032 0.144953 -0.087031 36 24 24
0.805807 0.155028 -0.041705 36 24 25
0.804232 0.153912 -0.075880 36 24 26
0.813180 0.140299 -0.099432 36 25 23
0.810396 0.145587 -0.065916 36 26 23
0.811771 0.142206 -0.033057 36 27 23
0.809254 0.146145 -0.047354 36 27 23
0.812432 0.141592 -0.054436 36 27 24
0.798014 0.160374 -0.252997 37 19 18
0.796951 0.160994 -0.236043 37 19 20
0.801474 0.156956 -0.234192 37 21 19
0.809962 0.147029 -0.017923 37 27 23
0.812559 0.143068 -0.003060 37 27 24
0.829829 0.118277 -0.127148 37 28 24
0.814528 0.138267 -0.017399 37 28 24
0.812737 0.148284 0.023876 38 27 24
0.828569 0.118644 -0.110597 38 28 25
0.815389 0.144281 0.039175 38 28 25
0.827510 0.120112 -0.044484 38 29 25
0.821802 0.129258 -0.026760 38 29 25
0.817888 0.140214 0.053587 38 29 25
0.815393 0.139105 0.013159 38 29 25
0.796066 0.161659 -0.217858 39 20 22
0.827857 0.119615 -0.066876 39 28 26
0.749756 0.115919 0.733910 40 33 24
0.751497 0.121536 0.747497 43 33 25
0.753827 0.110380 0.723082 43 37 28
0.755250 0.115921 0.734070 44 36 28
0.820104 0.073098 0.066368 45 36 30
0.755843 0.121374 0.738652 46 35 30
0.816950 0.106268 0.460773 47 36 31
0.753504 0.127230 0.763154 47 37 30
0.808550 0.139064 0.576564 48 35 32
0.842171 0.080034 -0.130511 48 37 32
0.844409 0.079921 -0.141371 48 37 32
0.756869 0.126905 0.746579 49 37 32
0.754482 0.132796 0.770789 51 40 34
0.757607 0.132409 0.752277 52 39 34
0.758810 0.159628 0.761564 52 39 34
0.764760 0.175949 0.764929 52 39 34
0.759483 0.176006 0.766766 53 40 35
0.752192 0.180966 0.752920 53 40 35
0.758634 0.181204 0.760206 53 40 35
0.764570 0.181311 0.763477 53 40 35
0.759597 0.165208 0.767643 54 41 36
0.759904 0.170692 0.770014 54 41 36
0.885577 0.088860 -0.401630 30 25 27
0.888112 0.088769 -0.408006 30 25 27
0.891067 0.088705 -0.412441 30 25 27
0.893129 0.088585 -0.420767 30 25 27
0.908734 0.084277 -0.454946 31 24 26
0.836895 0.120750 -0.202522 34 26 23
0.841592 0.112056 -0.221695 35 25 28
0.843996 0.111865 -0.230808 35 25 29
0.835152 0.117385 -0.167320 35 27 27
0.872533 0.081674 -0.351628 35 30 27
0.874498 0.081562 -0.361189 35 30 27
0.815454 0.137037 -0.062283 36 26 25
0.829352 0.131607 0.259336 36 27 28
0.900953 0.076818 -0.438061 36 30 30
0.832314 0.113827 -0.136950 38 30 27
0.827527 0.120662 -0.019740 38 30 27
0.906562 0.076719 -0.447574 38 33 32
0.844412 0.100303 -0.185623 39 32 32
0.831693 0.119389 0.362974 39 32 32
0.855571 0.082555 -0.276763 40 30 29
0.864586 0.081906 -0.331970 40 30 29
0.844872 0.099974 -0.204962 40 30 29
0.851593 0.099469 -0.234722 40 30 29
0.823089 0.135733 0.434854 42 32 33
0.832851 0.106762 0.194747 44 33 34
0.827318 0.115721 0.429520 44 35 32
0.816700 0.075423 0.362637 44 37 38
0.819808 0.075090 0.320197 44 37 38
0.837867 0.101240 -0.130412 44 38 31
0.836558 0.105775 -0.114376 44 38 31
0.866339 0.074026 -0.323651 44 38 37
0.818046 0.111401 0.467860 45 37 32
0.814805 0.085732 0.414296 46 37 34
0.825943 0.086368 0.047443 46 37 34
0.790346 0.145652 0.633933 47 35 36
0.797051 0.144967 0.606353 48 36 37
0.779918 0.103770 0.635754 48 37 37
0.785582 0.103803 0.638049 48 37 37
0.757405 0.083098 0.667541 49 38 35
0.796390 0.135284 0.638863 49 38 35
0.768207 0.164680 0.749285 49 38 35
0.830776 0.080867 -0.050897 49 39 35
0.799701 0.082042 0.552138 49 44 41
0.770051 0.169248 0.721940 50 38 36
0.786129 0.071876 0.567003 50 41 37
0.797183 0.087368 0.570793 50 41 37
0.786966 0.092986 0.610043 50 41 37
0.794485 0.092733 0.588548 50 41 37
0.808629 0.107539 0.541871 50 41 37
0.749945 0.191135 0.735386 50 41 37
0.787606 0.130324 0.652492 51 37 37
0.791195 0.130062 0.639937 51 37 37
0.766178 0.153501 0.733926 51 37 37
0.787042 0.109210 0.648464 51 37 39
0.793936 0.108790 0.621675 51 37 39
0.795965 0.119495 0.635885 51 37 39
0.767783 0.142082 0.704949 51 37 39
0.762123 0.143019 0.744773 51 38 42
0.765301 0.131887 0.727295 52 38 43
0.765125 0.142576 0.725963 52 38 43
0.761916 0.077451 0.621107 52 40 39
0.771420 0.109887 0.691616 52 40 45
0.770481 0.077332 0.605968 52 42 42
0.773466 0.072021 0.589270 53 42 39
0.772127 0.087862 0.617947 53 42 39
0.769233 0.093289 0.635756 53 42 39
0.750011 0.210885 -0.057449 79 44 47
0.750032 0.210036 0.314199 34 23 16
0.750858 0.206807 -0.052109 65 34 38
0.751389 0.204930 0.096925 40 26 27
0.750309 0.202819 0.151613 34 22 20
0.753305 0.203188 -0.036699 55 31 35
0.754462 0.202659 0.147994 38 24 24
0.756459 0.201366 0.224854 34 24 22
0.758060 0.200193 -0.006746 51 30 34
0.761177 0.197884 -0.149553 70 37 39
0.763052 0.197206 -0.163968 74 39 42
0.762869 0.194132 -0.139402 50 22 23
0.763976 0.193260 -0.158468 52 22 22
0.767391 0.193025 -0.163612 54 23 24
0.768335 0.191357 -0.106620 44 21 20
0.768817 0.190334 -0.129669 46 21 18
0.772632 0.190201 -0.132671 45 20 17
0.774450 0.188441 -0.172329 55 22 24
0.776019 0.185608 -0.236141 78 37 37
0.778561 0.185198 -0.245392 82 41 41
0.778050 0.182002 -0.224605 54 22 23
0.780407 0.181555 -0.234984 57 24 24
0.781422 0.178685 -0.205450 48 23 24
0.783376 0.178150 -0.218244 47 21 22
0.785852 0.176546 -0.155922 44 22 25
0.786705 0.175756 -0.175440 44 22 24
0.788710 0.173332 -0.235348 45 20 20
0.789416 0.172555 -0.254524 46 20 19
0.791845 0.169909 -0.217935 42 18 19
0.792242 0.169087 -0.238944 45 20 19
0.795090 0.166465 -0.199911 37 19 21
0.795224 0.165610 -0.222502 39 19 20
0.796205 0.162541 -0.193717 37 19 22
0.796066 0.161659 -0.217858 39 20 22
0.796951 0.160994 -0.236043 37 19 20
0.799051 0.158112 -0.201400 32 20 20
0.801746 0.155269 -0.162944 34 21 22
0.802637 0.154635 -0.181629 34 22 22
0.805133 0.151685 -0.144128 32 22 21
0.807170 0.147816 -0.132814 33 22 22
0.809254 0.146145 -0.047354 36 27 23
0.810470 0.144129 -0.114482 34 23 21
0.811771 0.142206 -0.033057 36 27 23
0.808550 0.139064 0.576564 48 35 32
0.813180 0.140299 -0.099432 36 25 23
0.813646 0.139682 -0.120930 35 24 22
0.814528 0.138267 -0.017399 37 28 24
0.815454 0.137037 -0.062283 36 26 25
0.817730 0.134745 -0.145862 33 23 22
0.821802 0.129258 -0.026760 38 29 25
0.827981 0.129564 -0.182621 32 23 21
0.828526 0.129056 -0.202070 32 22 21
0.830175 0.125679 -0.171034 34 25 21
0.827527 0.120662 -0.019740 38 30 27
0.827510 0.120112 -0.044484 38 29 25
0.827857 0.119615 -0.066876 39 28 26
0.827318 0.115721 0.429520 44 35 32
0.832314 0.113827 -0.136950 38 30 27
0.832851 0.106762 0.194747 44 33 34
0.836558 0.105775 -0.114376 44 38 31
0.837867 0.101240 -0.130412 44 38 31
0.844412 0.100303 -0.185623 39 32 32
0.844872 0.099974 -0.204962 40 30 29
0.851593 0.099469 -0.234722 40 30 29
0.854084 0.102305 -0.304115 33 23 22
0.855258 0.102047 -0.318237 34 24 22
0.857044 0.101845 -0.329239 32 23 20
0.860092 0.101757 -0.334066 33 23 21
0.862688 0.101631 -0.340982 32 21 20
0.865349 0.101511 -0.347503 32 22 21
0.868431 0.105382 -0.351969 33 21 21
0.875774 0.104954 -0.373800 30 20 24
0.878360 0.104472 -0.398411 30 20 21
0.877892 0.100873 -0.382408 30 20 23
0.875445 0.097081 -0.375313 32 22 21
0.878255 0.096989 -0.380744 31 21 20
0.879607 0.096785 -0.392741 32 23 19
0.882445 0.096698 -0.397875 32 23 19
0.888960 0.096292 -0.421795 30 24 19
0.888112 0.088769 -0.408006 30 25 27
0.891067 0.088705 -0.412441 30 25 27
0.893129 0.088585 -0.420767 30 25 27
0.891896 0.096217 -0.426206 30 24 19
0.896158 0.096242 -0.424749 31 21 20
0.899368 0.096188 -0.427900 31 21 20
0.902995 0.096166 -0.429205 31 21 20
0.906154 0.096110 -0.432511 31 21 20
0.906010 0.099945 -0.433131 30 19 20
0.911577 0.103601 -0.442829 29 19 20
0.913107 0.103404 -0.452906 31 19 19
0.914416 0.099685 -0.447357 31 19 19
0.915204 0.099445 -0.460482 31 19 19
0.916395 0.099239 -0.471774 33 21 21
0.916817 0.095473 -0.470003 29 19 20
0.918081 0.095289 -0.480872 29 19 20
0.920716 0.095203 -0.485941 30 20 21
0.923226 0.087798 -0.475536 30 20 24
0.924235 0.095179 -0.487307 30 20 21
0.928355 0.098975 -0.486191 36 19 20
0.932701 0.099012 -0.484170 35 18 19
0.933467 0.095286 -0.481046 30 20 21
0.751913 -0.117263 -0.326925 30 19 21
0.817183 0.033271 -0.101425 39 33 24
0.750730 -0.040781 0.319087 42 27 28
0.826368 0.063489 -0.050784 47 36 31
0.975192 0.060842 -0.556041 27 23 25
0.970984 0.064610 -0.543509 27 23 25
0.969602 0.064669 -0.534399 28 23 25
0.786662 -0.092967 -0.049847 30 25 27
0.972609 0.061015 -0.522945 30 25 27
0.968597 0.064739 -0.523750 30 25 27
0.791034 -0.079483 0.056941 35 27 27
0.799176 -0.084100 -0.054333 35 29 27
0.797584 0.010103 0.068802 35 29 27
0.786106 0.007766 0.293048 35 29 32
0.784938 -0.105125 -0.161151 35 30 27
0.911381 0.034540 -0.426912 35 36 36
0.769397 -0.118861 -0.297057 36 26 25
0.805985 -0.066264 0.064219 36 26 25
0.787868 -0.013802 0.151423 36 27 28
0.787494 -0.009619 0.178662 36 27 28
0.810760 0.011743 -0.088550 36 27 28
0.791001 -0.098262 -0.126449 36 30 26
0.837593 -0.104418 -0.422766 36 35 38
0.948508 0.057506 -0.467123 36 36 33
0.894324 -0.072445 -0.449899 36 36 35
0.897113 -0.072250 -0.454711 36 36 35
0.946026 0.057528 -0.461501 36 36 35
0.777728 -0.019999 0.238443 37 28 28
0.769881 0.036019 0.489263 37 28 28
0.773356 0.011521 0.406974 37 28 29
0.774144 0.016421 0.412397 37 28 29
0.828247 -0.140364 -0.522542 37 35 36
0.776203 -0.135790 -0.476474 37 35 36
0.792963 -0.118559 -0.302690 37 35 36
0.991715 -0.044295 -0.494045 37 35 36
0.914852 0.042250 -0.428864 37 35 36
0.957564 0.042293 -0.461943 37 35 36
0.961112 0.042295 -0.463262 37 35 36
0.963759 0.042301 -0.468109 37 35 36
0.769256 0.011462 0.413489 38 29 29
0.794964 -0.144404 -0.517880 38 33 35
0.782597 0.002867 0.302106 38 33 35
0.770201 -0.146131 -0.547480 39 29 33
0.757266 -0.139480 -0.536102 39 29 33
0.808893 -0.054856 0.136629 39 29 33
0.793589 -0.051650 0.187160 39 29 33
0.802646 0.027505 0.184489 39 29 33
0.767435 -0.021712 0.332309 39 32 32
0.768687 0.006552 0.409542 39 32 32
0.784951 0.012336 0.317586 39 32 32
0.779391 0.016677 0.379689 39 32 32
0.782093 0.016797 0.364301 39 32 32
0.784394 0.016936 0.346519 39 32 32
0.828175 0.033315 -0.112723 39 32 32
0.778937 0.041080 0.480662 39 32 32
0.808220 -0.045067 -0.053228 39 35 29
0.820462 0.016210 -0.107356 39 35 29
0.767486 -0.148857 -0.561522 40 29 32
0.796385 -0.067998 0.117424 40 30 29
0.798940 -0.067585 0.104738 40 30 29
0.749770 -0.008414 0.418547 40 30 29
0.760157 -0.003482 0.420520 40 30 29
0.880749 0.065749 -0.369338 40 35 36
0.887958 0.069509 -0.390937 40 35 36
0.889486 0.069423 -0.401872 40 35 36
0.881037 0.061827 -0.368020 40 36 35
0.919117 0.065261 -0.443988 40 36 35
0.814984 -0.111686 -0.357449 40 39 38
0.781225 0.041105 0.461077 41 33 33
0.773383 0.046119 0.514023 41 33 33
0.818534 -0.047553 -0.117905 41 41 38
0.966236 -0.022176 -0.473570 41 41 38
0.969996 -0.022167 -0.473987 41 41 38
0.974259 -0.022203 -0.472451 41 41 38
0.978528 -0.022239 -0.470909 41 41 38
0.985494 -0.018377 -0.473863 41 41 38
0.985951 -0.014620 -0.472122 41 41 38
0.841275 -0.014864 -0.265595 41 41 38
0.970487 -0.007031 -0.472076 41 41 38
0.876866 0.006804 -0.368771 41 41 38
0.860818 0.022073 -0.311093 41 41 38
0.843703 0.025702 -0.253374 41 41 38
0.908339 0.057679 -0.423090 41 41 38
0.834408 0.004805 -0.215388 42 38 40
0.807447 -0.092783 -0.155106 42 39 35
0.831465 -0.003559 -0.208785 42 40 39
0.753526 -0.017567 0.373644 43 31 32
0.794498 0.031521 0.347746 43 34 35
0.785941 0.036189 0.423916 43 34 35
0.804895 -0.027282 -0.072114 43 37 35
0.826798 0.016747 -0.166286 43 38 40
0.873356 0.061933 -0.347795 43 38 40
0.822531 0.007814 -0.119771 43 39 31
0.813494 -0.053150 -0.073250 43 40 32
0.814112 -0.052520 -0.094257 43 43 35
0.870375 0.014393 -0.342855 43 43 39
0.870703 0.018343 -0.341320 43 43 39
0.750339 0.046120 0.574256 44 33 34
0.828111 0.020887 -0.159303 44 37 38
0.801711 0.041273 0.330409 44 37 38
