ply
format ascii 1.0
element vertex 1194
property float x
property float y
property float z
property uchar red
property uchar green
property uchar blue
end_header
-0.491560 0.048455 0.194292 194 120 118
-0.642706 0.101321 0.005341 194 120 118
-0.639103 0.101381 0.008870 194 120 118
-0.655045 0.114505 0.000783 194 120 118
-0.642420 0.137667 0.039434 194 120 118
-0.639128 0.142281 0.044399 194 120 118
0.136723 0.175334 0.213712 194 120 118
-0.506443 -0.000975 0.042928 194 120 119
-0.651081 0.110125 0.002856 194 120 119
-0.241217 -0.429795 -0.087514 194 120 120
0.393511 -0.316908 0.068347 194 120 120
0.449936 -0.311725 0.245759 194 120 120
0.469115 -0.232940 0.400109 194 120 120
0.232093 -0.243482 0.690045 194 120 120
0.232090 -0.238410 0.693631 194 120 120
-0.079987 -0.192011 0.227191 194 120 120
-0.498170 -0.005203 0.025676 194 120 120
-0.498242 -0.005512 0.047248 194 120 120
-0.496686 -0.005716 0.061432 194 120 120
-0.505599 -0.001480 0.081669 194 120 120
-0.502393 -0.001566 0.088301 194 120 120
-0.326119 0.015195 0.264597 194 120 120
-0.655384 0.105688 0.002072 194 120 120
0.155416 0.199730 0.234699 194 120 120
0.487311 -0.216361 0.447092 194 120 122
-0.084521 -0.196522 0.224110 194 120 122
0.487488 -0.211537 0.449789 194 120 122
-0.099905 -0.197221 0.234615 194 120 123
-0.646567 0.105702 0.002840 194 121 116
-0.647123 0.110167 0.004974 194 121 116
-0.488247 0.043782 0.201485 194 121 119
-0.484156 0.043782 0.204889 194 121 119
-0.516626 0.004399 -0.033692 194 121 120
-0.515729 0.004211 -0.017715 194 121 121
-0.643279 0.092500 0.007554 194 121 121
-0.094673 -0.196919 0.230077 194 121 123
-0.080178 -0.196873 0.229385 194 121 123
-0.094423 -0.192021 0.227336 194 121 123
0.493547 -0.241986 0.389050 194 121 124
-0.023812 -0.115726 0.317439 194 121 126
0.396948 -0.203557 0.481586 194 121 130
0.401832 -0.203168 0.475495 194 121 130
0.406582 -0.202610 0.466759 194 121 130
0.411073 -0.201721 0.452854 194 121 130
0.415608 -0.200942 0.440666 194 121 130
0.420432 -0.200587 0.435126 194 121 132
0.425132 -0.200093 0.427389 194 121 132
0.061840 -0.103125 0.495463 194 121 132
-0.264348 -0.422073 -0.050314 194 122 120
-0.512316 0.003430 0.048947 194 122 120
-0.514486 0.004040 -0.003107 194 122 121
-0.513569 0.003849 0.013156 194 122 121
-0.513272 0.003623 0.032447 194 122 121
-0.511283 0.003238 0.065294 194 122 121
-0.510885 0.003009 0.084795 194 122 122
-0.509173 0.002850 0.098394 194 122 123
-0.505499 0.002797 0.102922 194 122 123
-0.511474 0.007286 0.109157 194 122 123
0.349236 -0.324152 -0.145870 194 122 124
0.350718 -0.324668 -0.103582 194 122 124
0.355330 -0.325423 -0.096847 194 122 124
0.359950 -0.326148 -0.090391 194 122 124
0.517910 -0.264569 -0.236149 194 122 124
0.526377 -0.252321 -0.235235 194 122 124
0.133064 -0.309469 0.536629 194 122 124
0.534884 -0.238525 0.280074 194 122 124
-0.112432 -0.205295 0.214700 194 122 124
0.470569 -0.219746 0.423696 194 122 124
-0.084526 -0.201237 0.224162 194 122 124
-0.070848 -0.201825 0.232818 194 122 124
0.481843 -0.210977 0.441370 194 122 124
-0.180785 -0.158884 0.311139 194 122 124
-0.175084 -0.153683 0.304118 194 122 124
-0.060745 -0.143160 0.286613 194 122 124
-0.055492 -0.142925 0.282003 194 122 124
-0.165739 -0.115341 0.308490 194 122 124
-0.503035 0.002676 0.113240 194 122 124
-0.504754 0.007158 0.121385 194 122 124
0.009718 0.066556 0.103981 194 122 124
0.011433 0.070903 0.077486 194 122 124
-0.076557 -0.202530 0.243212 194 122 125
-0.080246 -0.201644 0.230155 194 122 126
-0.176644 -0.125425 0.318130 194 122 126
-0.170764 -0.125030 0.309484 194 122 126
0.090374 0.054903 0.869801 194 122 126
0.382949 -0.205999 0.519777 194 122 128
0.387588 -0.205084 0.505475 194 122 128
0.392465 -0.204607 0.498010 194 122 129
-0.502073 -0.263207 0.022734 194 123 117
-0.264608 -0.417959 -0.048579 194 123 120
-0.522403 0.008506 -0.007944 194 123 120
-0.656564 0.092241 -0.010521 194 123 120
-0.650317 0.096810 -0.000065 194 123 120
-0.655011 0.101242 0.000653 194 123 120
-0.664737 0.114559 0.003342 194 123 120
-0.532963 0.013209 -0.040245 194 123 121
-0.530166 0.013143 -0.032996 194 123 121
-0.531407 0.009113 -0.066247 194 123 122
-0.523511 0.008868 -0.042660 194 123 122
-0.515789 0.007747 0.064896 194 123 122
-0.514539 0.007586 0.080341 194 123 122
-0.513679 0.007404 0.097789 194 123 122
-0.508551 0.048412 0.161737 194 123 122
-0.653643 0.092326 -0.004548 194 123 122
-0.646308 0.092418 0.001844 194 123 122
0.665943 0.472963 -0.097732 194 123 122
-0.270792 0.502396 -0.356907 194 123 122
0.471091 -0.215348 0.432167 194 123 125
0.066083 -0.114114 0.516651 194 123 127
0.065978 -0.109115 0.519067 194 123 129
0.061510 -0.098328 0.502830 194 123 132
0.138276 -0.309495 0.536911 194 124 126
-0.085570 -0.178400 0.235944 194 124 126
-0.187902 -0.150239 0.330426 194 124 126
0.521630 -0.259957 -0.241335 194 124 127
0.401308 -0.207414 0.463318 194 124 133
-0.543499 0.013491 -0.071182 194 125 121
-0.644262 0.083686 0.011347 194 125 121
0.174322 0.210168 0.256303 194 125 123
-0.516791 0.012015 0.090747 194 125 125
-0.507797 0.025394 0.135802 194 125 125
-0.090206 -0.178275 0.233899 194 125 126
-0.090418 -0.173692 0.236262 194 125 126
-0.086046 -0.173995 0.241305 194 125 126
-0.081597 -0.174254 0.245623 194 125 126
-0.014284 -0.140135 0.322304 194 125 126
-0.161436 -0.115586 0.314195 194 125 126
-0.518489 0.012138 0.077300 194 125 126
-0.506111 0.011677 0.127815 194 125 126
-0.510724 0.016266 0.127524 194 125 126
-0.507092 0.020819 0.132464 194 125 126
0.669304 0.471962 -0.105403 194 125 126
0.673105 0.471410 -0.109633 194 125 126
0.666119 0.481726 -0.096387 194 125 126
0.666138 0.486039 -0.096243 194 125 126
0.733306 0.526294 -0.171340 194 125 126
-0.010040 -0.126092 0.332743 194 125 127
0.465852 -0.210190 0.429538 194 125 128
0.466066 -0.205441 0.433085 194 125 129
0.066067 -0.119223 0.517031 194 125 133
0.056625 -0.093032 0.496549 194 125 133
-0.650065 0.083541 -0.001027 194 126 120
-0.492077 -0.253931 0.018406 194 126 122
-0.470912 -0.214482 0.025570 194 126 122
-0.554059 0.017761 -0.063865 194 126 122
-0.644021 0.052554 -0.024129 194 126 122
-0.628398 0.052623 0.002319 194 126 122
-0.624501 0.052630 0.004727 194 126 122
-0.647725 0.065810 -0.009972 194 126 122
-0.646883 0.083601 0.004052 194 126 122
-0.274290 0.418011 -0.430093 194 126 122
-0.646585 0.061381 -0.014327 194 126 123
-0.512816 0.025386 0.137370 194 126 126
-0.165370 0.532170 -0.267773 194 126 126
-0.020068 -0.160172 0.334662 194 126 128
-0.137631 -0.080413 0.273878 194 126 133
0.043214 -0.111617 0.454912 194 126 135
-0.491262 -0.249158 0.014590 194 127 121
-0.628914 0.039353 0.004343 194 127 122
-0.450521 -0.203140 -0.007777 194 127 124
-0.508805 0.029972 0.140578 194 127 124
0.172533 -0.243048 0.683875 194 127 125
-0.518752 0.025356 0.143211 194 127 126
-0.515025 0.034557 0.147771 194 127 126
-0.284199 0.434072 -0.395718 194 127 126
0.168828 -0.282509 0.582352 194 127 127
-0.225107 -0.134776 0.311535 194 127 127
-0.520002 0.020854 0.127189 194 127 127
-0.515537 0.039166 0.150183 194 127 127
0.198588 0.219510 0.252872 194 127 127
0.672971 0.488379 -0.110636 194 127 127
0.673044 0.492730 -0.110085 194 127 127
-0.326030 0.493536 -0.363309 194 127 127
-0.195342 -0.122095 0.352066 194 127 128
-0.014607 -0.150065 0.327096 194 127 129
-0.166807 -0.048077 0.318318 194 127 129
0.080243 0.038282 0.837352 194 127 129
-0.513908 0.029965 0.142511 194 128 125
0.691742 0.527923 -0.132185 194 128 125
0.674542 0.550042 -0.098867 194 128 125
0.695696 0.531772 -0.134838 194 128 126
0.669792 0.506737 -0.101710 194 128 127
0.684417 0.520848 -0.122478 194 128 127
-0.165881 0.528717 -0.263803 194 128 127
0.232083 -0.228235 0.700758 194 128 128
0.679847 0.465257 -0.124157 194 128 128
0.680104 0.469762 -0.122262 194 128 128
-0.159717 -0.052386 0.298176 194 128 131
-0.385821 -0.179274 0.031929 194 129 121
0.677079 0.522309 -0.112488 194 129 126
0.675180 0.563669 -0.094083 194 129 127
-0.226833 -0.130600 0.325388 194 129 128
0.674182 0.515332 -0.101563 194 129 128
0.148730 -0.304316 0.536251 194 129 131
-0.167697 -0.043434 0.326506 194 129 131
-0.153267 -0.052005 0.283570 194 129 132
-0.148012 -0.047128 0.280014 194 129 132
-0.162309 -0.106257 0.322332 194 129 133
0.032570 -0.096871 0.462921 194 129 135
0.042072 -0.097410 0.477694 194 129 135
0.041569 -0.092721 0.487736 194 129 135
0.057995 -0.064949 0.581308 194 129 135
0.178306 -0.251826 0.658616 194 130 128
-0.609683 0.021801 -0.018360 194 130 128
0.684539 0.512456 -0.121596 194 130 128
0.688482 0.512042 -0.124478 194 130 128
0.163337 -0.278269 0.593958 194 130 129
-0.227901 -0.126148 0.333959 194 130 129
-0.199941 -0.126828 0.348855 194 130 129
0.680416 0.491375 -0.119973 194 130 129
0.674116 0.519547 -0.102061 194 130 129
-0.337247 0.478891 -0.409518 194 130 129
0.699735 0.518748 -0.136850 194 130 129
0.711178 0.534137 -0.147247 194 130 129
0.730917 0.532353 -0.159031 194 130 129
0.733933 0.531102 -0.167292 194 130 129
0.744289 0.541256 -0.155915 194 130 129
-0.630007 0.017869 -0.077695 194 131 125
-0.634146 0.021749 -0.010369 194 131 125
-0.555350 0.009605 -0.113395 194 131 127
-0.440337 0.448536 -0.460442 194 131 127
0.677557 0.509995 -0.108947 194 131 127
0.680913 0.508945 -0.116326 194 131 127
0.684595 0.508254 -0.121185 194 131 127
0.688301 0.507600 -0.125783 194 131 127
0.677458 0.514167 -0.109677 194 131 127
0.680709 0.512998 -0.117819 194 131 127
0.699772 0.527268 -0.136592 194 131 127
0.703193 0.526336 -0.142853 194 131 127
0.696363 0.545229 -0.130122 194 131 127
0.177537 -0.207639 0.712818 194 131 128
-0.603737 0.021839 -0.024231 194 131 128
0.684584 0.503981 -0.121264 194 131 128
0.688017 0.503056 -0.127832 194 131 128
0.696392 0.549510 -0.129919 194 131 128
0.677485 0.505643 -0.109477 194 131 129
0.681026 0.504795 -0.115490 194 131 129
-0.626370 0.013678 -0.091596 194 132 126
-0.568108 0.005348 -0.114639 194 132 128
-0.561912 0.005436 -0.122183 194 132 129
0.700755 0.558043 -0.129707 194 132 129
0.704824 0.557754 -0.131534 194 132 129
-0.337353 0.482001 -0.388240 194 133 128
-0.575130 0.005221 -0.103832 194 133 129
-0.721878 0.087992 -0.306104 194 134 124
-0.345869 0.487196 -0.405925 194 134 124
-0.185428 0.365674 -0.303185 195 81 81
-0.113697 0.438921 -0.130679 195 82 79
0.168517 0.461705 0.057032 195 82 79
0.172922 0.462884 0.066741 195 82 79
0.141663 0.574966 0.033989 195 82 79
-0.066937 0.500057 -0.024599 195 82 86
0.297956 0.561278 0.122783 195 83 79
0.317060 0.587048 0.141426 195 83 80
-0.088043 0.515774 -0.037598 195 83 82
0.372770 0.570883 0.125752 195 83 82
0.209665 0.467534 0.067918 195 84 82
0.378051 0.573146 0.140827 195 84 83
0.102858 0.416547 0.096971 195 85 79
0.218742 0.484031 0.091399 195 85 81
-0.004882 0.577025 0.047249 195 85 81
0.317269 0.556130 0.150472 195 85 82
0.340115 0.598669 0.127553 195 85 84
-0.004692 0.581082 0.044543 195 86 82
0.232627 0.478878 0.086494 195 86 84
0.118379 0.389055 0.049576 195 87 85
-0.117794 0.434413 -0.132836 195 87 85
-0.103028 0.540053 -0.108168 195 87 85
0.326805 0.556834 0.155331 195 88 83
0.383020 0.578752 0.147455 195 89 84
0.138553 0.560260 0.147147 195 89 87
-0.175881 0.389835 -0.373089 195 89 91
0.322495 0.601016 0.171821 195 90 87
-0.106245 0.538398 -0.119101 195 90 89
0.326809 0.552236 0.155499 195 91 85
-0.095962 0.566655 -0.047579 195 92 92
-0.183669 0.393576 -0.374743 195 92 94
-0.180323 0.402005 -0.369952 195 92 95
-0.104146 0.514172 -0.139162 195 93 87
0.408302 0.592507 0.088534 195 93 88
0.317932 0.509112 0.179243 195 93 89
0.323029 0.510999 0.193702 195 93 90
0.223464 0.462639 0.064727 195 93 91
0.308392 0.508772 0.176640 195 93 91
0.333124 0.513747 0.214760 195 93 91
-0.180848 0.406399 -0.366144 195 93 95
-0.072947 0.334617 0.042171 195 94 83
0.382497 0.586045 0.134913 195 94 87
0.382064 0.589029 0.124540 195 94 87
0.381396 0.591100 0.108509 195 94 87
0.400933 0.598814 0.128473 195 94 87
0.404306 0.594555 0.101504 195 94 88
-0.154271 0.439930 -0.256954 195 94 100
0.331588 0.543339 0.157967 195 95 90
0.241886 0.471071 0.096745 195 95 91
0.294768 0.494728 0.213001 195 95 92
0.299349 0.497949 0.201336 195 95 92
0.346958 0.525511 0.197386 195 95 92
-0.191722 0.370024 -0.374458 195 95 100
0.341289 0.544623 0.167071 195 96 91
-0.402604 0.310281 -0.092681 195 96 97
-0.381194 0.320213 -0.224873 195 96 97
-0.196783 0.391235 -0.394889 195 96 99
-0.155461 0.445236 -0.247402 195 96 101
-0.157268 0.434685 -0.266219 195 96 102
0.361116 0.534294 0.193219 195 97 94
-0.399979 0.313466 -0.106227 195 97 98
-0.236926 0.457906 -0.392714 195 97 98
-0.165004 0.490506 -0.302527 195 97 98
-0.193339 0.387761 -0.391150 195 97 100
-0.166519 0.435610 -0.258842 195 97 103
0.270453 0.485319 0.174995 195 98 93
0.360711 0.537367 0.181663 195 98 94
-0.454188 0.293653 0.032675 195 98 97
-0.236249 0.453411 -0.397004 195 98 99
-0.206282 0.494624 -0.329184 195 99 100
0.082197 0.356874 0.040905 195 100 96
-0.394342 0.309897 -0.043516 195 101 99
-0.466809 0.282832 0.005757 195 102 100
-0.318145 0.303365 -0.125553 195 102 100
-0.138199 0.544302 -0.216725 195 103 99
-0.201241 0.529986 -0.307380 195 103 107
-0.348561 0.324981 -0.308168 195 105 104
-0.317705 0.329351 -0.429292 195 105 107
-0.264504 0.484591 -0.370523 195 105 108
-0.497961 0.273840 0.003731 195 106 104
-0.094253 -0.372369 -0.064786 195 106 106
-0.187367 -0.436387 -0.130406 195 106 108
-0.169865 -0.431933 -0.131809 195 108 106
-0.072650 -0.326244 -0.011014 195 108 111
-0.191194 0.504684 -0.260968 195 108 111
-0.072489 -0.330454 -0.012777 195 108 112
-0.278208 0.321950 -0.384223 195 108 112
-0.160072 -0.430575 -0.141098 195 109 106
-0.141426 -0.421498 -0.115584 195 109 106
-0.526054 0.260862 0.008329 195 109 106
-0.129792 -0.410458 -0.102819 195 109 107
-0.108281 -0.393739 -0.099650 195 109 107
-0.157806 -0.428803 -0.124090 195 109 108
-0.108748 -0.390037 -0.095191 195 109 108
-0.104882 -0.390692 -0.090223 195 109 108
-0.090587 -0.360298 -0.057096 195 109 108
-0.086614 -0.356520 -0.052375 195 109 108
0.572195 0.493879 0.062529 195 109 110
-0.186174 0.519418 -0.297722 195 109 110
0.553689 0.491118 0.111321 195 109 111
0.557497 0.489946 0.102157 195 109 111
0.553852 0.495915 0.113118 195 109 111
0.557683 0.494760 0.104178 195 109 111
0.557733 0.499386 0.104723 195 109 111
0.568770 0.495457 0.074619 195 109 111
-0.226458 0.498455 -0.330248 195 109 113
-0.256805 -0.363590 -0.100643 195 110 105
-0.264946 -0.341686 -0.104587 195 110 107
-0.260935 -0.341963 -0.102235 195 110 107
-0.537249 0.257028 0.017850 195 110 107
-0.227421 0.303578 -0.122876 195 110 107
0.576002 0.506319 0.054620 195 110 107
-0.210897 -0.434140 -0.116704 195 110 109
0.422202 -0.275962 0.270441 195 110 109
0.427488 -0.276665 0.278492 195 110 109
0.427097 -0.271239 0.271015 195 110 109
0.495867 0.394297 0.147630 195 110 109
-0.362641 0.343648 -0.440489 195 110 109
0.564525 0.459778 0.078410 195 110 109
0.568231 0.467668 0.069009 195 110 109
0.571731 0.466290 0.057772 195 110 109
0.575103 0.464787 0.045526 195 110 109
0.568419 0.472421 0.070971 195 110 109
0.568495 0.477031 0.071756 195 110 109
0.575736 0.496984 0.051936 195 110 109
0.575949 0.501757 0.054084 195 110 109
0.572697 0.508074 0.067672 195 110 109
0.568786 0.518064 0.074783 195 110 109
-0.230029 0.494046 -0.359884 195 110 113
0.578757 0.490473 0.036431 195 111 107
0.572050 0.471189 0.061036 195 111 109
0.572275 0.475977 0.063343 195 111 109
0.409330 -0.293717 0.205441 195 111 112
0.414362 -0.294197 0.210554 195 111 112
0.215811 -0.248973 0.692430 195 111 112
-0.547924 0.248565 0.024892 195 112 108
-0.490288 0.328361 -0.226030 195 112 111
0.439320 -0.260644 0.316334 195 112 112
-0.292727 -0.349360 -0.039239 195 113 109
0.515025 -0.290742 0.275518 195 113 111
0.500252 0.398483 0.143396 195 113 111
0.504374 0.397727 0.135871 195 113 111
0.500237 0.403071 0.143206 195 113 111
0.519419 0.458929 0.148172 195 113 111
0.439061 -0.265083 0.311624 195 113 112
-0.562393 0.230958 0.028544 195 114 110
0.512180 0.400304 0.116032 195 114 110
0.519102 -0.289807 0.265277 195 114 113
0.500394 0.421720 0.145302 195 114 113
0.420063 -0.295884 0.228506 195 114 114
-0.283152 0.322460 -0.378719 195 114 118
0.388489 -0.267115 0.278674 195 114 119
-0.135338 0.370046 -0.052991 195 115 107
0.510557 0.445885 0.155163 195 115 112
0.516147 -0.287287 0.290226 195 115 113
0.500414 0.417138 0.145562 195 115 113
0.418118 -0.301637 0.190366 195 115 116
-0.400300 0.024238 0.358184 195 115 116
0.393646 -0.304806 0.175050 195 115 117
0.418852 -0.298339 0.204749 195 115 117
-0.409413 0.029144 0.353249 195 115 117
-0.076278 -0.281572 0.028704 195 115 118
0.393530 -0.257863 0.282497 195 115 121
0.380175 -0.250915 0.315512 195 115 121
-0.441690 -0.329160 0.015593 195 116 113
0.500278 0.407733 0.143750 195 116 113
0.508438 0.406095 0.127860 195 116 113
0.504521 0.411719 0.137805 195 116 113
0.508721 0.411061 0.131504 195 116 113
0.513099 0.410661 0.127674 195 116 113
-0.370560 -0.350701 0.048531 195 116 114
-0.462383 0.034184 0.291562 195 116 114
0.184264 0.376828 -0.072078 195 116 114
0.223733 0.378549 -0.011128 195 116 117
-0.172797 -0.193907 0.116105 195 116 120
-0.092779 0.043779 0.058807 195 116 120
0.519248 0.444849 0.146041 195 117 113
-0.471534 -0.306053 0.006774 195 117 114
-0.466043 0.034201 0.285110 195 117 114
-0.629946 0.115036 0.026193 195 117 114
0.398401 -0.304841 0.175410 195 117 116
-0.365547 0.014699 0.328140 195 117 116
-0.253130 0.043781 0.157992 195 117 116
0.093963 0.120858 0.087813 195 117 116
0.228204 0.379387 -0.002680 195 117 116
0.179845 0.381211 -0.071520 195 117 116
0.184145 0.381935 -0.064405 195 117 116
-0.136912 0.030186 0.085657 195 117 117
-0.229549 -0.426872 -0.107882 195 117 118
-0.224727 -0.426402 -0.111156 195 117 118
0.377590 -0.314105 0.129415 195 117 118
-0.107976 -0.235382 0.120338 195 117 118
0.515520 -0.233941 0.347127 195 117 118
-0.116776 0.039270 0.069390 195 117 118
0.452867 -0.313338 0.214228 195 117 121
-0.485738 -0.293077 0.009888 195 118 112
-0.425707 -0.334814 0.026539 195 118 114
-0.421797 -0.335178 0.029818 195 118 114
-0.629416 0.110542 0.024107 195 118 114
-0.632248 0.114853 0.017416 195 118 114
-0.633541 0.119407 0.022488 195 118 114
-0.635399 0.124027 0.029773 195 118 114
-0.581350 0.213294 0.031822 195 118 114
0.157392 0.378605 -0.054399 195 118 114
0.508767 0.415715 0.132096 195 118 114
0.175501 0.380843 -0.075128 195 118 116
0.113375 -0.275651 0.498905 195 118 117
0.524301 -0.285430 0.269596 195 118 118
0.516874 -0.259283 0.299765 195 118 118
0.521085 -0.258548 0.290823 195 118 119
0.431604 -0.318847 0.176013 195 118 120
-0.105706 0.043779 0.050516 195 118 120
-0.640220 0.128512 0.030850 195 119 115
-0.616755 0.214008 0.046205 195 119 115
0.527994 0.361160 0.138162 195 119 115
0.418324 -0.320563 0.103363 195 119 117
-0.470101 0.039030 0.255635 195 119 117
0.105810 0.131287 0.142676 195 119 117
0.522143 -0.245218 0.304458 195 119 120
-0.314710 0.010532 0.253396 195 119 120
0.404045 -0.323338 0.002824 195 119 121
0.405368 -0.321765 0.029470 195 119 121
0.123164 0.151070 0.187971 195 119 121
0.400916 -0.321970 0.031379 195 119 122
0.463055 -0.314296 0.223880 195 119 122
0.467783 -0.314180 0.222711 195 119 122
0.118255 -0.291687 0.508488 195 119 122
0.525774 -0.258337 0.288260 195 119 122
0.525934 -0.253705 0.290276 195 119 122
0.526032 -0.249006 0.291528 195 119 122
0.371666 -0.244092 0.352402 195 119 122
0.524058 -0.232603 0.329134 195 119 122
0.528445 -0.232080 0.322099 195 119 122
0.518661 -0.227204 0.389046 195 119 122
0.360154 -0.227116 0.457733 195 119 122
-0.154859 -0.197214 0.164847 195 119 122
-0.169679 -0.153442 0.299611 195 119 122
0.030604 0.079814 0.065069 195 119 122
-0.228913 0.430517 -0.393023 195 119 122
-0.165198 -0.148834 0.303504 195 119 123
0.073353 0.101827 0.035096 195 119 123
0.430718 -0.248017 0.340216 195 119 124
0.435849 -0.248270 0.343441 195 119 124
0.430944 -0.243487 0.344537 195 119 124
0.366070 -0.213649 0.481520 195 119 126
0.377205 -0.210114 0.504715 195 119 126
0.412008 -0.321649 0.070550 195 120 118
0.412890 -0.318944 0.087855 195 120 118
0.505098 -0.277212 0.340382 195 120 118
0.512710 -0.264918 0.309641 195 120 118
0.512986 -0.260396 0.313314 195 120 118
-0.359400 0.019595 0.320631 195 120 118
-0.632623 0.101551 0.018888 195 120 118
-0.638729 0.181793 0.025036 195 120 118
0.226652 -0.238705 0.697900 195 120 119
0.403376 -0.318361 0.082272 195 120 120
0.399657 -0.315798 0.101323 195 120 120
0.391422 -0.313646 0.124899 195 120 120
0.405898 -0.314616 0.134436 195 120 120
0.392601 -0.311734 0.151481 195 120 120
0.396998 -0.311051 0.144687 195 120 120
0.401915 -0.311520 0.149355 195 120 120
0.407028 -0.312371 0.157829 195 120 120
0.412740 -0.309736 0.177901 195 120 120
0.521678 -0.249558 0.298469 195 120 120
0.509730 -0.237968 0.335956 195 120 120
-0.211145 -0.164347 0.238186 195 120 120
0.402446 -0.320854 0.063022 195 120 121
0.534757 -0.262116 0.219722 195 120 122
-0.038886 -0.169122 0.321369 195 120 122
-0.170615 -0.139433 0.308126 195 120 124
-0.307083 0.358628 -0.444216 195 120 124
0.473165 -0.298382 0.306406 195 120 125
0.531850 -0.268817 0.242893 195 120 125
0.457765 -0.236273 0.378490 195 120 125
-0.175986 -0.144462 0.312220 195 120 125
-0.170215 -0.144069 0.304487 195 120 125
-0.165548 -0.144183 0.306732 195 120 125
0.443989 -0.189228 0.495153 195 120 127
-0.143482 0.504230 -0.207788 195 121 112
-0.272785 -0.404271 -0.053198 195 121 114
-0.490454 -0.279868 0.010811 195 121 116
-0.490743 -0.275561 0.012164 195 121 116
-0.639346 0.105829 0.009813 195 121 116
-0.635385 0.105869 0.011988 195 121 116
-0.632205 0.105965 0.017247 195 121 116
-0.636570 0.155385 0.034368 195 121 116
-0.639718 0.159664 0.028892 195 121 116
-0.642736 0.163912 0.022972 195 121 116
-0.639366 0.164072 0.027520 195 121 116
-0.639246 0.168511 0.027052 195 121 116
-0.641887 0.172686 0.019677 195 121 116
-0.639406 0.172989 0.027676 195 121 116
-0.626799 0.190985 0.031717 195 121 116
-0.619626 0.204729 0.039413 195 121 116
-0.601748 0.209270 0.040861 195 121 116
-0.613345 0.214240 0.050890 195 121 116
-0.607798 0.214043 0.046925 195 121 116
-0.496364 -0.267158 0.017277 195 121 118
-0.477967 0.043782 0.221911 195 121 118
-0.635649 0.101452 0.013017 195 121 118
-0.639615 0.137856 0.046308 195 121 118
-0.252980 -0.428374 -0.067234 195 121 119
-0.258857 -0.425428 -0.057402 195 121 119
0.505058 -0.272301 0.339825 195 121 119
-0.352375 0.019681 0.307486 195 121 119
-0.338400 0.019853 0.280993 195 121 119
-0.312147 0.024871 0.236446 195 121 119
-0.305868 0.024921 0.226710 195 121 119
-0.481461 0.048483 0.215347 195 121 119
-0.645932 0.096817 0.000400 195 121 119
-0.642686 0.096894 0.005261 195 121 119
-0.638948 0.096941 0.008269 195 121 119
-0.646048 0.101245 0.000842 195 121 119
-0.635860 0.142427 0.049510 195 121 119
0.127485 0.160869 0.202374 195 121 119
0.150581 0.190308 0.235435 195 121 119
-0.650976 0.105695 0.002456 195 121 120
-0.655382 0.110110 0.002064 195 121 120
0.586094 0.579603 0.063845 195 121 120
0.367039 -0.325140 -0.021093 195 121 121
0.394655 -0.314982 0.093409 195 121 121
0.444917 -0.311407 0.242511 195 121 121
0.506107 -0.249123 0.354341 195 121 121
0.509701 -0.247653 0.335561 195 121 121
-0.221763 -0.185954 0.134331 195 121 121
-0.203608 -0.172471 0.215917 195 121 121
-0.506577 -0.001260 0.064766 195 121 121
-0.331485 0.019938 0.267877 195 121 121
-0.300023 0.029664 0.219719 195 121 121
-0.638970 0.092512 0.008353 195 121 121
0.150798 0.194649 0.226201 195 121 121
0.481452 -0.215560 0.435282 195 121 122
-0.038186 -0.163753 0.311920 195 121 122
0.463793 -0.232595 0.395396 195 121 123
0.470009 -0.224079 0.414622 195 121 123
-0.089849 -0.196910 0.229942 195 121 123
-0.039164 0.057337 0.076290 195 121 123
0.536938 -0.254865 0.246014 195 121 124
-0.099532 -0.187513 0.230592 195 121 124
0.359875 -0.231514 0.449116 195 121 125
-0.182186 -0.145040 0.323581 195 121 125
-0.356355 -0.170030 0.099431 195 122 117
-0.643303 0.105790 0.007645 195 122 117
-0.636119 0.173175 0.032597 195 122 117
-0.635256 0.186420 0.029215 195 122 117
0.152443 0.371945 -0.033595 195 122 117
0.362349 -0.324519 -0.026756 195 122 122
0.081959 0.110975 0.046219 195 122 122
0.515301 -0.213955 0.411633 195 122 124
-0.023802 -0.125387 0.317303 195 122 124
-0.260632 0.504401 -0.369670 195 122 124
-0.175583 -0.188978 0.180689 195 122 125
-0.182592 -0.135531 0.327187 195 122 125
-0.176712 -0.130288 0.318744 195 122 126
-0.171024 -0.129964 0.311846 195 122 126
0.469619 -0.178915 0.491992 195 122 127
0.424410 -0.204122 0.412854 195 122 130
-0.259496 -0.421685 -0.053097 195 123 120
0.128195 -0.303221 0.523912 195 123 122
0.077702 0.106373 0.039512 195 123 123
0.515655 -0.266184 -0.261321 195 123 125
0.497758 -0.246015 0.377380 195 123 125
-0.071739 -0.207275 0.243341 195 123 125
-0.108853 -0.201458 0.227414 195 123 125
-0.104447 -0.201748 0.231692 195 123 125
0.521003 -0.209575 0.420287 195 123 125
-0.095373 -0.173781 0.237743 195 123 125
-0.060307 -0.147670 0.281184 195 123 125
-0.165292 -0.119980 0.304372 195 123 125
-0.507579 0.007248 0.112714 195 123 125
0.535000 -0.243420 0.281492 195 123 126
0.465114 -0.219303 0.417293 195 123 126
-0.182760 -0.130755 0.328678 195 123 126
-0.170869 -0.120249 0.310436 195 123 126
-0.171286 -0.115588 0.314223 195 123 126
0.534851 -0.248062 0.279667 195 123 127
-0.033744 -0.173792 0.318495 195 123 127
0.464257 -0.183775 0.488562 195 123 127
-0.188332 -0.145581 0.334203 195 123 127
-0.014484 -0.130595 0.325268 195 123 127
-0.165471 -0.124872 0.306021 195 123 127
-0.176959 -0.120716 0.320961 195 123 127
0.091040 0.049323 0.850278 195 123 127
0.443523 -0.193761 0.486464 195 123 129
0.419564 -0.204403 0.417164 195 123 130
-0.496550 -0.258350 0.018140 195 124 118
0.157161 0.370871 -0.044567 195 124 119
-0.259846 -0.417660 -0.050746 195 124 121
-0.301102 -0.173952 0.163401 195 124 121
-0.635488 0.083699 0.012390 195 124 121
0.169364 0.205686 0.262419 195 124 121
0.167496 -0.236183 0.661419 195 124 122
-0.243624 -0.178212 0.157438 195 124 122
-0.536117 0.013261 -0.045858 195 124 122
-0.528830 0.013018 -0.019233 195 124 122
-0.238995 0.522728 -0.328062 195 124 122
-0.118298 -0.201340 0.225675 195 124 124
-0.076358 -0.178704 0.240899 195 124 125
-0.027678 -0.115086 0.302572 195 124 125
-0.076328 -0.211815 0.240540 195 124 126
0.465454 -0.214723 0.422944 195 124 127
-0.188535 -0.140813 0.335978 195 124 127
0.468814 -0.183194 0.478655 195 124 128
-0.411831 -0.186129 0.001454 195 125 119
-0.373889 -0.173801 0.016095 195 125 119
-0.541708 0.013389 -0.059970 195 125 121
-0.539595 0.013299 -0.050019 195 125 121
-0.266548 -0.175360 0.186358 195 125 124
-0.105693 -0.178952 0.244943 195 125 126
-0.133873 -0.176612 0.284920 195 125 127
-0.037267 -0.114954 0.299512 195 125 127
0.061415 -0.123797 0.504945 195 125 135
-0.596281 0.039335 0.018483 195 126 122
-0.598941 0.043779 0.029372 195 126 122
-0.512609 0.043781 0.158601 195 126 125
-0.519267 0.016464 0.102188 195 126 126
0.215625 -0.235593 0.730584 195 126 127
-0.052236 -0.188176 0.240975 195 126 128
-0.189219 -0.121648 0.341984 195 126 128
-0.123136 -0.201362 0.225997 195 126 129
0.467537 -0.191983 0.457476 195 126 129
0.466958 -0.196399 0.447875 195 126 130
0.466520 -0.200939 0.440622 195 126 131
-0.642903 0.048160 -0.028403 195 127 124
-0.632688 0.052621 0.001465 195 127 124
-0.645349 0.056962 -0.019051 195 127 124
0.133134 -0.304112 0.533948 195 127 125
0.722685 0.520065 -0.156677 195 127 125
0.066020 -0.124364 0.518113 195 127 136
0.070674 -0.124916 0.530930 195 127 136
-0.557570 0.017791 -0.067669 195 128 123
-0.459214 -0.209076 0.012759 195 128 124
-0.633992 0.039373 -0.010967 195 128 124
-0.631273 0.039364 -0.004054 195 128 124
-0.623675 0.030514 0.001473 195 128 125
-0.520800 0.034544 0.152790 195 128 127
0.174085 -0.282633 0.583860 195 128 128
0.168614 -0.278356 0.595042 195 128 128
-0.520923 0.039162 0.153368 195 128 128
0.676613 0.470586 -0.115946 195 128 128
0.688419 0.520489 -0.124934 195 128 128
0.695617 0.523203 -0.135394 195 128 128
0.723278 0.524865 -0.152741 195 128 128
0.695911 0.536245 -0.133322 195 128 128
0.696173 0.540773 -0.131470 195 128 128
0.143371 -0.304847 0.542237 195 128 130
0.184612 -0.282869 0.586724 195 128 130
0.075086 -0.120622 0.550539 195 128 136
0.042948 -0.106812 0.460218 195 128 136
-0.489196 -0.225118 0.047675 195 129 124
-0.623309 0.026101 0.000029 195 129 124
-0.617055 0.026137 -0.006902 195 129 124
-0.640405 0.034994 -0.020834 195 129 124
-0.641289 0.039381 -0.017439 195 129 124
-0.611919 0.026150 -0.009452 195 129 126
-0.519903 0.029941 0.148597 195 129 126
0.714549 0.524739 -0.153589 195 129 126
0.719059 0.524947 -0.152190 195 129 126
0.715030 0.529446 -0.150337 195 129 126
0.671899 0.556366 -0.085771 195 129 127
0.226637 -0.228501 0.704753 195 129 128
0.673674 0.506221 -0.105371 195 129 128
0.691976 0.519674 -0.130511 195 129 129
0.056203 -0.088275 0.505702 195 129 134
0.054738 -0.079110 0.537471 195 129 135
0.672063 0.560868 -0.084528 195 130 128
0.707887 0.539433 -0.140244 195 130 129
0.112699 0.060502 0.881039 195 130 131
0.148711 -0.299273 0.537123 195 130 132
-0.186641 -0.088333 0.363134 195 130 132
-0.172990 -0.106555 0.329718 195 130 133
-0.162047 -0.096484 0.319887 195 130 134
0.068783 -0.009603 0.705053 195 130 135
0.033064 -0.101540 0.453564 195 130 136
0.037430 -0.102086 0.467996 195 130 136
0.042592 -0.102061 0.467325 195 130 136
0.083740 -0.117416 0.598305 195 130 138
0.088583 -0.117918 0.610737 195 130 138
-0.632954 0.030579 -0.014997 195 131 125
-0.559512 0.013719 -0.096171 195 131 126
-0.639675 0.034956 -0.006364 195 131 126
0.158080 -0.278111 0.592010 195 131 130
0.232075 -0.223526 0.710330 195 131 130
-0.223953 -0.126519 0.342085 195 131 130
-0.197006 -0.108043 0.366504 195 131 130
-0.573609 0.009384 -0.092246 195 131 130
0.715905 0.534563 -0.144429 195 131 130
0.711933 0.539149 -0.142107 195 131 130
0.734492 0.535855 -0.163678 195 131 130
0.735230 0.540796 -0.158908 195 131 130
0.738896 0.540176 -0.162934 195 131 130
-0.560832 0.009557 -0.108756 195 132 128
0.700367 0.544875 -0.132420 195 132 128
-0.585200 0.013417 -0.063060 195 132 129
0.700363 0.549116 -0.132452 195 132 129
-0.201827 -0.112879 0.365026 195 132 130
-0.566892 0.009484 -0.101800 195 132 130
-0.589393 0.013426 -0.063981 195 132 130
-0.633227 0.026353 -0.048411 195 133 124
-0.629501 0.022089 -0.062726 195 133 126
-0.295450 0.360200 -0.465144 195 133 130
0.708850 0.557424 -0.133627 195 133 130
-0.623604 0.009488 -0.102167 195 134 127
-0.613269 -0.003042 -0.125087 195 136 129
0.081124 0.461554 0.170516 196 79 80
-0.119632 0.443722 -0.194100 196 79 80
-0.071170 0.504085 -0.027223 196 79 80
0.163196 0.574974 0.092507 196 79 80
-0.126140 0.449825 -0.211525 196 80 83
0.141630 0.570689 0.035206 196 81 80
0.141013 0.569653 0.057659 196 81 81
0.297887 0.551555 0.118891 196 83 79
-0.115983 0.440860 -0.149506 196 83 80
0.302637 0.552212 0.123424 196 83 80
0.103767 0.404967 0.073135 196 83 81
0.312605 0.579497 0.152373 196 84 79
0.302681 0.566300 0.125755 196 84 80
-0.114594 0.435677 -0.122315 196 84 82
0.307385 0.552775 0.127311 196 84 82
0.099517 0.395028 0.064201 196 84 83
0.312360 0.554772 0.141095 196 84 83
0.145029 0.568430 0.079269 196 84 84
0.098062 0.416985 0.101059 196 85 79
0.357518 0.574673 0.090537 196 85 79
0.352536 0.577580 0.079947 196 85 81
0.340173 0.594390 0.129514 196 85 84
0.181355 0.587603 0.115359 196 85 89
0.026434 0.512563 0.135256 196 86 80
-0.023112 0.549975 0.238610 196 87 81
-0.129173 0.436113 -0.221862 196 87 86
0.095901 0.379179 0.040307 196 87 87
-0.186086 0.367057 -0.328158 196 87 91
0.373091 0.576714 0.133990 196 88 82
-0.001357 0.579383 0.062430 196 88 83
-0.101859 0.549110 -0.076872 196 88 86
0.214252 0.463207 0.069403 196 88 88
0.367828 0.578960 0.118610 196 89 82
0.056668 0.579512 0.006243 196 89 82
0.331435 0.556399 0.152328 196 89 84
0.378222 0.578393 0.145084 196 89 84
-0.001165 0.583445 0.059627 196 89 84
0.344178 0.595552 0.107820 196 89 84
0.357450 0.592517 0.088598 196 89 84
0.114064 0.383854 0.042354 196 89 87
-0.131392 0.463431 -0.202608 196 90 90
0.086068 0.367310 0.056764 196 90 91
-0.135152 0.446293 -0.206693 196 90 91
-0.175995 0.389364 -0.342600 196 90 92
-0.177532 0.387871 -0.390187 196 90 94
0.410851 0.591407 0.139852 196 91 88
0.098455 0.575004 -0.022304 196 91 88
-0.134410 0.441346 -0.213057 196 91 91
-0.103734 0.522066 -0.143102 196 92 86
0.382883 0.582863 0.144174 196 92 86
-0.100128 0.518838 -0.136234 196 92 87
0.232627 0.474332 0.086386 196 92 89
-0.152111 0.437882 -0.240705 196 92 100
-0.055791 0.335708 0.055031 196 94 85
0.373095 0.585917 0.134085 196 94 87
0.380848 0.593586 0.095367 196 94 87
0.341064 0.548182 0.159494 196 94 90
0.313123 0.508716 0.176206 196 94 92
0.328196 0.513052 0.209432 196 94 92
-0.196943 0.310461 -0.090451 196 95 88
0.377776 0.585906 0.134014 196 95 88
0.377209 0.588321 0.119979 196 95 88
0.303645 0.504077 0.176289 196 95 90
-0.210005 0.324843 -0.123233 196 95 92
0.337846 0.518126 0.212323 196 95 93
0.356577 0.530524 0.199861 196 95 95
-0.186230 0.392381 -0.385025 196 95 97
0.299201 0.501563 0.192982 196 96 91
0.299051 0.505140 0.184518 196 96 91
0.336433 0.543984 0.162539 196 96 91
0.342383 0.521699 0.203883 196 96 92
0.280146 0.492145 0.192386 196 96 94
0.351736 0.530232 0.197710 196 96 94
-0.411719 0.305368 -0.045642 196 96 97
0.114223 0.378939 0.037853 196 97 96
-0.180655 0.421397 -0.308150 196 97 101
-0.202926 0.432191 -0.380066 196 97 103
0.270592 0.496414 0.189208 196 98 95
0.228059 0.462432 0.063024 196 98 97
-0.175231 0.431897 -0.255865 196 98 101
-0.156033 0.449925 -0.242815 196 98 103
0.346237 0.540974 0.174148 196 99 95
0.351038 0.541253 0.176146 196 99 96
-0.429743 0.300169 0.000861 196 99 97
-0.374390 0.323149 -0.238281 196 99 98
-0.167671 0.488921 -0.313466 196 99 99
-0.341650 0.333471 -0.386641 196 99 100
-0.394918 0.315565 -0.132346 196 99 102
-0.189811 0.379539 -0.359553 196 99 102
-0.189479 0.383225 -0.361909 196 99 102
-0.153857 0.406244 -0.156829 196 100 91
-0.388382 0.309822 -0.098353 196 100 101
-0.171410 0.436314 -0.253222 196 101 106
-0.206951 0.308579 -0.113718 196 102 100
-0.187017 0.439770 -0.321411 196 103 106
-0.331974 0.305744 -0.095682 196 104 103
-0.090495 0.501736 -0.012233 196 105 99
-0.182636 -0.435930 -0.133506 196 106 108
-0.313206 0.329058 -0.432332 196 106 109
-0.229482 0.334626 -0.414828 196 106 109
-0.254392 -0.348793 -0.116744 196 107 103
-0.255019 -0.345023 -0.112560 196 107 103
-0.117023 -0.398023 -0.099686 196 107 105
-0.178065 -0.435648 -0.135417 196 107 107
-0.269992 0.298771 -0.183254 196 108 106
-0.094237 -0.368014 -0.064951 196 108 108
-0.082634 -0.352735 -0.047605 196 108 108
-0.192939 0.514271 -0.278468 196 108 108
-0.476794 0.278721 0.010328 196 109 105
-0.120992 -0.401809 -0.103395 196 109 106
-0.502905 0.269549 0.005724 196 109 106
-0.101611 -0.383499 -0.079298 196 109 108
-0.074952 -0.332405 -0.034628 196 109 109
-0.072817 -0.322037 -0.009185 196 109 111
-0.072906 -0.317733 -0.008218 196 109 113
-0.073140 -0.309184 -0.005646 196 109 113
-0.073492 -0.305170 -0.001793 196 109 113
-0.260442 0.488482 -0.370826 196 109 114
-0.255499 -0.358233 -0.109358 196 110 105
-0.164250 -0.430410 -0.142228 196 110 107
-0.125211 -0.405908 -0.104747 196 110 107
-0.105471 -0.387133 -0.084526 196 110 107
-0.521778 0.260930 0.009404 196 110 107
-0.515743 0.264916 0.002562 196 110 107
-0.142383 -0.418399 -0.107281 196 110 108
-0.112654 -0.393739 -0.099650 196 110 108
-0.206923 -0.434546 -0.113927 196 110 109
-0.202552 -0.434528 -0.114052 196 110 109
-0.197795 -0.434082 -0.117099 196 110 109
-0.193254 -0.433870 -0.118554 196 110 109
-0.133557 -0.413995 -0.108178 196 110 109
-0.074723 -0.336498 -0.037104 196 110 109
0.433280 -0.268548 0.295566 196 110 109
-0.230363 0.498299 -0.331299 196 110 114
-0.228195 0.445522 -0.397648 196 110 118
-0.531522 0.256696 0.012546 196 111 108
-0.220164 0.039202 0.122028 196 111 110
0.561598 0.502844 0.096392 196 111 110
0.565628 0.502005 0.090025 196 111 110
0.565940 0.511521 0.093314 196 111 110
-0.226919 0.039181 0.137931 196 111 111
0.417958 -0.281844 0.282948 196 111 115
-0.184499 0.522190 -0.279725 196 112 114
-0.543357 0.248558 0.024765 196 113 109
0.439866 -0.256614 0.326250 196 113 114
-0.448728 0.331510 -0.281062 196 113 116
0.508116 0.396505 0.123712 196 114 110
0.508161 0.401144 0.124282 196 114 110
-0.237338 0.043781 0.145708 196 114 112
0.504277 0.402194 0.134601 196 114 112
0.505046 0.440087 0.144684 196 114 113
-0.216551 -0.426962 -0.107253 196 114 115
-0.181917 0.523973 -0.268142 196 114 115
-0.138055 0.502759 -0.217945 196 115 106
0.440392 -0.252531 0.335821 196 115 118
0.445456 -0.252689 0.337806 196 115 119
-0.456369 -0.314071 -0.001160 196 116 113
-0.444479 -0.323782 0.006931 196 116 114
-0.111861 0.373162 -0.065439 196 116 114
-0.221074 -0.427128 -0.106095 196 116 116
0.413056 -0.305707 0.184260 196 116 116
0.204739 -0.240344 0.721597 196 116 116
0.179950 0.376261 -0.077721 196 116 116
-0.288152 0.495556 -0.349734 196 116 116
-0.077076 -0.299743 -0.011708 196 116 118
-0.077514 -0.295814 -0.006984 196 116 118
-0.263432 -0.378362 -0.085724 196 117 110
-0.553095 0.235363 0.027629 196 117 112
-0.448399 -0.319038 0.003981 196 117 114
-0.466542 -0.310240 0.004467 196 117 114
-0.458850 0.034165 0.298777 196 117 114
0.171111 0.376441 -0.075938 196 117 114
0.504527 0.416327 0.137884 196 117 114
0.509459 0.435071 0.141009 196 117 114
0.510043 0.440520 0.148543 196 117 114
0.519991 -0.286072 0.276730 196 117 116
0.456415 -0.244339 0.355614 196 117 119
0.457207 -0.317304 0.206925 196 117 121
-0.143299 -0.206603 0.101936 196 117 121
0.446396 -0.244253 0.354499 196 117 122
0.445960 -0.248529 0.346756 196 117 123
0.509335 -0.281219 0.330581 196 118 115
-0.455394 0.034145 0.306512 196 118 115
-0.451862 0.034126 0.313944 196 118 115
-0.577418 0.213423 0.034414 196 118 115
-0.394628 -0.346974 0.055184 196 118 117
-0.388607 -0.346073 0.047253 196 118 117
-0.476885 -0.302031 0.010766 196 118 117
-0.167076 -0.197841 0.106894 196 118 117
-0.370880 0.019531 0.330539 196 118 117
0.141395 0.180202 0.218201 196 118 117
-0.333117 0.477900 -0.389545 196 118 117
-0.259005 0.043781 0.166325 196 118 118
0.378599 -0.312028 0.154414 196 118 119
0.518552 -0.241734 0.321766 196 118 119
0.457017 -0.240227 0.365811 196 118 119
-0.264286 0.043781 0.170266 196 118 119
-0.296754 0.492591 -0.369665 196 118 122
-0.332128 -0.353872 0.037236 196 119 115
-0.325618 -0.352492 0.025353 196 119 115
-0.319243 -0.351186 0.014103 196 119 115
-0.408518 -0.347067 0.056009 196 119 115
-0.430818 -0.335139 0.029466 196 119 115
-0.468024 0.039011 0.270022 196 119 115
-0.641757 0.146531 0.036849 196 119 115
-0.644228 0.150745 0.028762 196 119 115
-0.640968 0.150902 0.033772 196 119 115
-0.621453 0.199761 0.028535 196 119 115
-0.572418 0.217790 0.032515 196 119 115
0.162161 0.377080 -0.069578 196 119 115
0.513286 0.415497 0.130038 196 119 115
0.518897 0.439748 0.141665 196 119 115
-0.400411 -0.347715 0.061716 196 119 116
0.513634 -0.280465 0.321962 196 119 116
-0.141766 0.030178 0.087820 196 119 118
0.118892 0.145982 0.173259 196 119 118
0.457878 -0.313694 0.217810 196 119 122
0.516817 -0.268840 0.299011 196 120 118
0.418001 -0.310745 0.188077 196 120 120
-0.383449 0.024297 0.346691 196 120 120
-0.095376 -0.246249 0.086052 196 120 121
-0.101277 -0.242806 0.099306 196 120 121
-0.269697 0.043782 0.175054 196 120 121
-0.080058 -0.187347 0.228006 196 120 122
0.458850 -0.310532 0.233571 196 120 123
0.484540 -0.290827 0.329551 196 120 123
0.525630 -0.262979 0.286426 196 120 123
0.530853 -0.253733 0.290626 196 120 123
-0.121724 -0.226042 0.117909 196 120 123
-0.128539 -0.212544 0.184732 196 120 123
0.492871 -0.221838 0.453957 196 120 123
-0.164842 -0.153475 0.300226 196 120 123
0.026667 0.079701 0.054305 196 120 123
-0.169880 -0.148727 0.301446 196 120 124
-0.165894 -0.139521 0.309910 196 120 124
0.362816 -0.241678 0.384987 196 120 125
0.367466 -0.240885 0.374499 196 120 125
0.461538 -0.181145 0.530830 196 120 125
0.138698 0.368786 -0.020997 196 121 115
-0.629167 0.106073 0.023124 196 121 116
-0.617244 0.209623 0.048177 196 121 116
-0.629147 0.101622 0.023045 196 121 117
-0.475269 0.043783 0.232615 196 121 118
-0.639275 0.177424 0.027166 196 121 118
0.500799 -0.278012 0.349673 196 121 119
0.221183 -0.239388 0.707776 196 121 119
-0.632991 0.097130 0.020329 196 121 119
0.110185 0.136128 0.151691 196 121 119
0.150421 0.185849 0.242256 196 121 119
-0.325090 0.477859 -0.389823 196 121 119
-0.247724 -0.427555 -0.072996 196 121 120
0.097958 0.125765 0.103694 196 121 120
0.101838 0.130816 0.123700 196 121 120
0.535905 -0.258566 0.233565 196 121 122
-0.198925 -0.177228 0.216828 196 121 122
-0.280699 0.039120 0.185609 196 121 122
0.388282 -0.319909 0.054086 196 121 123
0.454023 -0.310515 0.233398 196 121 123
0.529776 -0.262209 0.277203 196 121 123
0.487353 -0.221408 0.447736 196 121 123
-0.184801 -0.184174 0.178366 196 121 123
-0.076667 -0.188401 0.244487 196 121 123
-0.299429 0.034380 0.215724 196 121 123
0.385190 -0.325737 -0.015642 196 121 124
0.470367 -0.303877 0.262900 196 121 124
0.481550 -0.301180 0.284884 196 121 124
0.469927 -0.295992 0.333000 196 121 124
0.529181 -0.275905 0.269791 196 121 124
0.534526 -0.252524 0.275681 196 121 124
0.475296 -0.224336 0.418268 196 121 124
0.519430 -0.223000 0.399303 196 121 124
0.514635 -0.218287 0.402590 196 121 124
-0.099775 -0.201852 0.233214 196 121 124
-0.165571 -0.193325 0.176064 196 121 124
-0.161681 -0.193833 0.183692 196 121 124
-0.089777 -0.187420 0.229136 196 121 124
-0.094729 -0.182799 0.230691 196 121 124
-0.089956 -0.182826 0.231122 196 121 124
-0.084950 -0.182689 0.228943 196 121 124
-0.163336 -0.167112 0.286363 196 121 124
-0.210297 -0.156672 0.270777 196 121 124
-0.169551 -0.158188 0.298449 196 121 124
-0.033306 -0.154130 0.312481 196 121 124
-0.176568 -0.135061 0.317445 196 121 124
-0.170931 -0.134750 0.310998 196 121 124
-0.023850 -0.120584 0.317984 196 121 124
0.039452 0.084388 0.070992 196 121 124
0.477790 -0.297977 0.302029 196 121 125
0.529409 -0.271378 0.272629 196 121 125
0.531016 -0.249096 0.292659 196 121 125
0.464475 -0.228471 0.406700 196 121 125
0.464807 -0.223909 0.412203 196 121 125
-0.176335 -0.139791 0.315354 196 121 125
0.063960 0.097452 0.040867 196 121 125
0.471443 -0.300687 0.279634 196 121 126
0.468325 -0.298489 0.307560 196 121 126
0.431367 -0.239230 0.352630 196 121 126
0.465235 -0.179671 0.505159 196 121 126
0.460490 -0.185190 0.512653 196 121 128
-0.632068 0.186643 0.034562 196 122 118
-0.241997 -0.426258 -0.082117 196 122 120
0.501218 -0.273637 0.355582 196 122 120
0.501636 -0.269245 0.361470 196 122 120
0.505263 -0.267675 0.342662 196 122 120
0.501797 -0.264541 0.363742 196 122 120
0.505616 -0.263209 0.347541 196 122 120
0.502034 -0.259917 0.367081 196 122 120
0.505974 -0.258738 0.352501 196 122 120
-0.488453 0.048466 0.202503 196 122 120
-0.484773 0.048473 0.207964 196 122 120
-0.633059 0.092688 0.020598 196 122 120
-0.635706 0.097019 0.013240 196 122 120
-0.312018 0.029602 0.235589 196 122 121
-0.305799 0.029639 0.226250 196 122 121
-0.635487 0.092570 0.012385 196 122 121
0.371671 -0.325558 -0.017274 196 122 122
0.384712 -0.317862 0.077492 196 122 122
0.388970 -0.317039 0.069604 196 122 122
0.123322 -0.297118 0.512466 196 122 122
0.509945 -0.252774 0.338877 196 122 122
0.502321 -0.245533 0.371124 196 122 122
0.505986 -0.244113 0.352669 196 122 122
0.468702 -0.237383 0.393407 196 122 122
0.481240 -0.220320 0.431999 196 122 122
-0.205361 -0.168614 0.230300 196 122 122
-0.029091 -0.144979 0.322369 196 122 122
-0.325351 0.019992 0.259607 196 122 122
-0.319441 0.020037 0.252662 196 122 122
-0.305505 0.034358 0.224286 196 122 122
-0.049432 0.052851 0.089148 196 122 122
-0.094426 -0.187307 0.227377 196 122 124
-0.037772 -0.124886 0.306326 196 122 124
0.465564 -0.303955 0.263712 196 122 125
0.531265 -0.244537 0.295752 196 122 125
0.013102 0.075187 0.051707 196 122 125
0.466623 -0.300771 0.280535 196 122 126
-0.182374 -0.140281 0.325245 196 122 126
-0.149417 0.374521 -0.007281 196 123 114
-0.268867 -0.409084 -0.049781 196 123 118
-0.497954 0.053088 0.179064 196 123 119
-0.504431 0.053050 0.164621 196 123 121
-0.500797 0.053064 0.169887 196 123 121
-0.231837 -0.181700 0.139656 196 123 123
-0.018232 0.066153 0.042462 196 123 123
0.445510 -0.307664 0.252793 196 123 124
0.459548 -0.306902 0.244897 196 123 125
-0.042401 -0.124714 0.302566 196 123 125
0.520436 -0.214030 0.412728 196 123 126
-0.061163 -0.138623 0.291798 196 123 126
-0.166134 -0.129977 0.312120 196 123 127
0.065788 -0.104184 0.523448 196 123 134
-0.055323 -0.147601 0.279876 196 124 125
0.460549 -0.303710 0.261140 196 124 126
-0.109423 -0.197140 0.233397 196 124 126
-0.104486 -0.197053 0.232097 196 124 126
-0.109426 -0.192418 0.233427 196 124 126
-0.100522 -0.178727 0.241274 196 124 126
-0.095102 -0.178328 0.234771 196 124 126
-0.071721 -0.178840 0.243123 196 124 126
-0.100909 -0.174243 0.245446 196 124 126
-0.056612 -0.162866 0.296110 196 124 126
-0.186303 -0.159172 0.316396 196 124 126
-0.174679 -0.158300 0.300479 196 124 126
-0.064826 -0.157002 0.276793 196 124 126
-0.065737 -0.148020 0.287904 196 124 126
-0.066143 -0.143477 0.292857 196 124 126
0.521443 -0.204990 0.426169 196 124 127
-0.161063 -0.125087 0.310724 196 124 128
-0.177471 -0.116076 0.325565 196 124 128
0.091176 0.043794 0.846312 196 124 128
0.096304 0.049338 0.861648 196 124 129
0.096722 0.054848 0.848902 196 124 129
-0.538567 0.017386 -0.015843 196 125 122
-0.509233 0.053051 0.164992 196 125 122
-0.509677 0.057694 0.167107 196 125 122
-0.639078 0.083656 0.008774 196 125 122
-0.633195 0.083801 0.021131 196 125 122
-0.630929 0.083907 0.030069 196 125 122
-0.139247 0.379415 -0.171577 196 125 122
0.496763 -0.269381 0.363095 196 125 124
0.497095 -0.264879 0.367858 196 125 124
0.497525 -0.260480 0.374040 196 125 124
0.147359 -0.242204 0.598091 196 125 124
-0.555670 0.021931 -0.038346 196 125 124
-0.513782 0.048415 0.164156 196 125 124
-0.183091 -0.121188 0.331610 196 125 128
0.396507 -0.207915 0.471008 196 125 135
-0.631453 0.061531 0.014300 196 126 123
-0.646927 0.079178 0.004220 196 126 124
-0.639880 0.079258 0.011885 196 126 124
-0.114510 -0.197326 0.236197 196 126 126
-0.520569 0.012243 0.065758 196 126 126
-0.068759 -0.204043 0.265515 196 126 127
-0.076784 -0.174267 0.245843 196 126 127
-0.070151 -0.209963 0.282216 196 126 128
-0.193656 -0.140886 0.337440 196 126 128
-0.183685 -0.116563 0.336889 196 126 129
0.467946 -0.187374 0.464264 196 126 130
0.414377 -0.209188 0.414471 196 126 134
-0.367591 -0.173615 0.084031 196 127 121
-0.561593 0.022012 -0.050837 196 127 123
-0.634328 0.070495 0.025576 196 127 124
0.183116 -0.233727 0.703083 196 127 126
-0.516634 0.043781 0.155347 196 127 126
-0.128043 -0.176041 0.275398 196 127 128
-0.192528 -0.150095 0.327658 196 127 128
0.730484 0.527717 -0.161855 196 127 128
-0.159623 0.518956 -0.247520 196 127 128
-0.073577 -0.161123 0.265040 196 127 130
-0.073739 -0.156462 0.266945 196 127 130
-0.074154 -0.151957 0.271849 196 127 130
0.070657 -0.119821 0.531351 196 127 135
-0.408060 -0.186392 0.005334 196 128 122
-0.477688 -0.219761 0.036302 196 128 124
-0.466959 -0.214697 0.028420 196 128 124
-0.446042 -0.203146 -0.007698 196 128 124
-0.564949 0.022041 -0.055339 196 128 124
-0.574782 0.026272 -0.032986 196 128 124
-0.571800 0.026240 -0.026833 196 128 124
-0.599347 0.034907 0.012525 196 128 124
-0.594158 0.034914 0.009795 196 128 124
-0.634668 0.043778 -0.008346 196 128 124
-0.631734 0.043778 -0.002256 196 128 124
-0.602811 0.043779 0.026625 196 128 124
-0.627956 0.048198 0.000583 196 128 124
-0.623713 0.048200 0.001620 196 128 124
-0.622077 0.052651 0.012999 196 128 124
-0.643235 0.056997 -0.009965 196 128 124
-0.644143 0.061422 -0.006475 196 128 124
-0.637166 0.065999 0.018936 196 128 124
-0.070051 0.493673 0.060950 196 128 124
-0.624097 0.034931 0.003133 196 128 125
-0.624266 0.039354 0.003802 196 128 125
-0.624008 0.043778 0.002784 196 128 125
-0.631933 0.048196 -0.001480 196 128 125
-0.642114 0.052580 -0.014268 196 128 125
-0.640939 0.070420 0.015995 196 128 125
-0.617652 0.034951 -0.004535 196 128 126
-0.615201 0.034930 0.003624 196 128 126
-0.612330 0.034913 0.010189 196 128 126
-0.618663 0.039360 -0.000528 196 128 126
-0.618242 0.043779 0.015742 196 128 126
-0.635094 0.048189 -0.006690 196 128 126
