ply
format ascii 1.0
element vertex 1273
property float x
property float y
property float z
property uchar red
property uchar green
property uchar blue
end_header
0.453795 0.372064 0.292869 203 84 79
0.501035 0.370173 0.271565 199 83 79
-0.201849 0.331422 -0.211632 196 80 76
-0.196891 0.330918 -0.217231 186 79 73
-0.098293 0.376766 0.291861 162 65 64
-0.094939 0.378369 0.309660 156 60 59
-0.091311 0.379731 0.324782 155 61 59
-0.087872 0.381340 0.342646 211 90 84
-0.085095 0.383729 0.369176 210 88 81
-0.081533 0.385320 0.386842 207 86 81
-0.075614 0.384290 0.375407 203 82 78
-0.046107 0.372711 0.246833 202 82 75
-0.041057 0.372433 0.243744 201 81 74
-0.039220 0.376197 0.285544 198 80 77
-0.036060 0.378404 0.310045 196 78 75
-0.031653 0.379062 0.317356 190 81 75
-0.025939 0.378000 0.305563 186 78 72
-0.020413 0.377151 0.296141 170 74 68
-0.017833 0.380366 0.331837 208 86 82
-0.013687 0.381490 0.344320 207 84 80
-0.008840 0.381648 0.346065 206 82 78
-0.003676 0.381342 0.342665 204 81 77
0.001647 0.380780 0.336425 201 79 75
0.006837 0.380400 0.332208 200 78 73
0.443815 0.376548 0.289437 201 79 74
-0.102600 0.380962 0.285338 198 79 76
-0.098054 0.381308 0.289122 197 79 76
-0.095731 0.384025 0.318857 207 86 82
-0.091911 0.385213 0.331861 205 83 79
-0.087942 0.386276 0.343496 205 82 78
-0.084695 0.388176 0.364297 204 80 77
-0.080457 0.389018 0.373508 204 79 76
-0.046992 0.378536 0.258783 201 77 74
-0.042128 0.378507 0.258465 199 76 72
-0.039332 0.381125 0.287115 198 75 71
-0.036572 0.383887 0.317353 197 74 70
-0.032531 0.385055 0.330135 194 75 72
-0.026300 0.383299 0.310920 196 78 75
-0.019933 0.381285 0.288870 215 91 86
-0.017321 0.384488 0.323925 210 86 81
-0.013305 0.385802 0.338306 207 83 78
-0.008660 0.386245 0.343160 206 79 75
-0.003463 0.385879 0.339153 204 77 73
0.002102 0.384930 0.328767 204 76 72
0.007285 0.384539 0.324490 202 76 71
0.012090 0.384738 0.326663 199 75 69
0.017077 0.384647 0.325673 197 73 69
0.021728 0.385118 0.330822 195 72 68
-0.097507 0.385516 0.282862 192 72 69
-0.096292 0.389457 0.325384 191 73 70
-0.092052 0.390211 0.333528 190 76 75
-0.087142 0.390246 0.333898 211 86 83
-0.083236 0.391414 0.346510 211 85 80
-0.078509 0.391680 0.349374 212 85 80
-0.034033 0.391922 0.351984 208 81 76
-0.027352 0.389563 0.326527 205 78 73
-0.020435 0.386777 0.296466 205 76 72
-0.017302 0.389294 0.323629 204 75 71
-0.013057 0.390292 0.334399 203 74 70
-0.008628 0.391056 0.342643 202 75 70
-0.003660 0.391034 0.342399 198 74 68
0.001991 0.389944 0.330641 196 73 68
0.007273 0.389393 0.324695 194 71 67
0.012279 0.389268 0.323346 190 71 67
0.017457 0.388847 0.318805 189 71 68
0.022124 0.389282 0.323503 186 73 71
-0.291640 0.328322 -0.376616 186 74 73
-0.289175 0.329170 -0.367602 181 74 72
-0.286126 0.329704 -0.361912 214 89 84
-0.278386 0.327611 -0.384188 212 84 81
-0.267544 0.323726 -0.425532 209 82 78
-0.262212 0.322925 -0.434050 207 81 76
-0.256938 0.322145 -0.442348 208 80 76
-0.251753 0.321404 -0.450238 210 82 78
-0.248568 0.321821 -0.445797 211 82 78
-0.096287 0.394287 0.325328 209 80 76
-0.091650 0.394612 0.328782 208 79 73
-0.085912 0.393705 0.319137 206 77 71
-0.028475 0.395966 0.343187 206 74 71
-0.021621 0.393262 0.314421 206 75 71
-0.017808 0.394862 0.331441 202 73 69
-0.013096 0.395196 0.335003 202 73 69
-0.008761 0.396116 0.344793 200 71 67
-0.004158 0.396661 0.350589 196 70 67
0.001368 0.395772 0.341132 192 69 67
0.006797 0.394998 0.332886 188 69 66
0.012086 0.394420 0.326746 186 68 65
0.017478 0.393640 0.318441 184 69 69
0.022282 0.393842 0.320591 186 72 72
-0.294482 0.331605 -0.383304 180 74 72
-0.291022 0.331898 -0.380225 175 70 67
-0.286421 0.331556 -0.383819 168 66 71
-0.282376 0.331523 -0.384167 168 64 68
-0.275265 0.329742 -0.402862 190 81 75
-0.264901 0.326063 -0.441469 195 84 78
-0.258676 0.324722 -0.455542 213 89 83
-0.253622 0.324043 -0.462670 212 86 81
-0.248766 0.323469 -0.468694 211 82 78
-0.245549 0.323859 -0.464599 206 78 73
-0.244350 0.325463 -0.447766 204 77 72
-0.089921 0.397507 0.308366 207 79 74
0.026984 0.399071 0.324784 208 79 75
0.032594 0.397810 0.311544 209 80 76
-0.300839 0.330307 -0.437239 212 83 79
-0.258331 0.328336 -0.457640 207 78 72
-0.253548 0.327807 -0.463125 207 78 72
-0.249318 0.327598 -0.465282 208 76 73
-0.245743 0.327781 -0.463395 208 76 73
-0.243208 0.328597 -0.454944 205 76 72
-0.240968 0.329607 -0.444479 204 76 72
-0.247197 0.332474 -0.454333 204 75 71
0.042565 0.407148 0.308514 198 73 70
-0.195664 0.355786 -0.257813 193 70 68
0.022614 0.412550 0.314443 188 68 66
0.027256 0.413065 0.319633 186 69 66
0.032521 0.412403 0.312956 182 68 68
0.037387 0.412498 0.313911 181 68 68
0.042499 0.412094 0.309847 177 71 69
0.052847 0.410956 0.298365 177 71 69
-0.230980 0.342230 -0.433241 170 73 68
-0.229601 0.343905 -0.416581 107 44 40
-0.228589 0.345852 -0.397202 107 38 39
0.008029 0.417094 0.311676 112 43 43
0.012896 0.417174 0.312469 117 46 45
0.017854 0.417091 0.311648 110 40 39
0.022629 0.417345 0.314176 112 43 44
0.027313 0.417784 0.318547 106 44 41
0.032278 0.417698 0.317683 103 42 37
0.037320 0.417452 0.315241 111 47 43
0.042496 0.416916 0.309909 114 48 45
0.047536 0.416640 0.307163 167 66 70
0.052414 0.416700 0.307761 171 68 73
0.062729 0.415539 0.296205 174 68 74
0.004274 0.419931 0.292217 213 87 84
0.008189 0.421633 0.308934 216 89 86
0.013113 0.421602 0.308638 218 90 87
0.017977 0.421683 0.309433 212 89 84
0.022656 0.422116 0.313679 211 87 83
0.027442 0.422363 0.316107 209 85 82
0.032140 0.422796 0.320360 209 84 81
0.037315 0.422284 0.315337 210 84 79
0.042573 0.421572 0.308342 210 83 78
-0.004061 0.422338 0.269087 212 83 79
0.000594 0.422676 0.272365 212 83 79
0.004884 0.423666 0.281960 210 83 78
0.008529 0.425843 0.303074 207 80 75
0.013379 0.425934 0.303964 208 81 76
0.018171 0.426137 0.305929 207 81 75
0.022856 0.426555 0.309983 205 81 75
0.027729 0.426625 0.310657 205 81 76
0.032294 0.427317 0.317371 202 81 77
0.037455 0.426819 0.312544 200 80 76
0.042714 0.426088 0.305452 197 79 76
-0.015271 0.421799 0.218314 193 77 76
-0.011085 0.422769 0.227601 189 75 75
-0.006889 0.423763 0.237117 178 70 70
-0.002551 0.424560 0.244752 178 70 70
0.001521 0.425850 0.257114 170 73 67
0.005142 0.427990 0.277609 168 72 66
0.008812 0.430142 0.298213 156 68 62
0.013476 0.430564 0.302257 114 49 45
0.018195 0.430902 0.305495 114 48 44
0.022985 0.431121 0.307588 115 44 45
0.027980 0.430945 0.305910 115 44 44
0.032545 0.431634 0.312501 120 48 47
0.037626 0.431281 0.309127 118 46 45
-0.023435 0.424325 0.197783 112 46 44
-0.018635 0.424263 0.197198 111 46 42
-0.014427 0.425145 0.205543 116 48 45
-0.010234 0.426087 0.214452 118 48 46
-0.006076 0.427128 0.224302 121 50 48
-0.002054 0.428446 0.236762 128 50 52
0.001648 0.430377 0.255027 132 52 55
0.005166 0.432722 0.277209 210 87 83
0.008964 0.434664 0.295586 210 85 77
0.013358 0.435588 0.304327 210 84 74
0.017949 0.436181 0.309934 211 84 76
0.022899 0.436101 0.309180 210 83 76
0.028092 0.435531 0.303784 206 84 75
0.032673 0.436188 0.310001 205 83 74
0.037730 0.435877 0.307057 208 93 82
0.042930 0.435240 0.301028 195 83 76
0.052629 0.435458 0.303097 195 82 77
-0.046472 0.427911 0.187667 212 87 84
-0.041907 0.428174 0.190116 215 87 83
-0.036095 0.426611 0.175512 216 87 83
-0.031774 0.427224 0.181243 219 90 86
-0.027464 0.427877 0.187346 220 91 87
-0.022905 0.428170 0.190080 212 87 84
-0.018526 0.428758 0.195582 212 87 82
-0.014525 0.429983 0.207026 212 86 81
-0.010218 0.430752 0.214211 213 86 81
-0.006076 0.431832 0.224304 214 86 81
-0.002308 0.433603 0.240847 211 85 80
0.001234 0.435850 0.261843 210 84 79
0.004913 0.437951 0.281472 211 85 80
0.008912 0.439557 0.296479 211 85 80
0.013099 0.440886 0.308895 209 86 80
0.017588 0.441694 0.316451 208 85 80
0.022627 0.441454 0.314207 207 86 82
0.027923 0.440681 0.306983 204 85 81
0.032620 0.441114 0.311030 201 84 80
0.037683 0.440790 0.308000 181 73 72
0.042951 0.439996 0.300582 178 70 70
0.048155 0.439304 0.294114 171 72 68
0.052974 0.439464 0.295609 169 71 67
-0.249674 0.367355 -0.414322 154 66 60
-0.230201 0.367536 -0.412648 141 61 53
-0.155549 0.389375 -0.211052 137 61 52
-0.154433 0.392222 -0.184767 131 61 50
-0.050101 0.430989 0.173095 123 48 46
-0.046385 0.432442 0.186505 125 50 48
-0.041181 0.431771 0.180315 124 49 47
-0.035053 0.429699 0.161184 127 52 50
-0.030720 0.430273 0.166482 130 52 51
-0.027024 0.431853 0.181069 129 51 50
-0.023109 0.433150 0.193041 130 52 51
-0.019028 0.434230 0.203018 123 48 48
-0.015056 0.435535 0.215056 122 47 47
-0.010739 0.436314 0.222248 125 48 47
-0.006660 0.437533 0.233507 126 48 47
-0.002945 0.439439 0.251102 128 49 49
0.000675 0.441600 0.271046 130 50 50
0.004535 0.443417 0.287824 134 49 50
0.008635 0.444873 0.301258 136 50 52
0.012800 0.446270 0.314161 137 54 55
0.017297 0.447088 0.321705 161 68 64
0.022282 0.446966 0.320586 206 84 81
0.027479 0.446404 0.315393 207 84 79
0.032352 0.446496 0.316240 208 82 76
0.037467 0.446071 0.312317 209 81 75
0.042938 0.444829 0.300857 211 83 77
0.048365 0.443620 0.289696 211 83 78
0.053202 0.443727 0.290678 210 84 77
0.057257 0.445731 0.309182 210 84 77
0.336873 0.445200 0.304281 215 87 85
0.341742 0.445091 0.303270 215 86 81
0.346322 0.444061 0.293768 216 87 81
0.351481 0.444900 0.301513 220 92 87
0.356072 0.443985 0.293064 215 93 86
0.361118 0.444444 0.297301 213 91 84
0.376046 0.445095 0.303310 214 90 84
0.380718 0.444520 0.298006 214 90 84
0.385996 0.445459 0.306671 212 88 82
0.391014 0.445727 0.309142 212 88 82
-0.248612 0.370494 -0.420995 212 90 83
-0.245426 0.371015 -0.416239 213 91 84
-0.229905 0.371196 -0.414591 213 91 84
-0.070788 0.425690 0.082463 212 90 84
-0.068026 0.428115 0.104584 181 73 71
-0.061450 0.431779 0.138001 170 71 68
-0.057536 0.432836 0.147650 155 66 62
-0.040980 0.436119 0.177592 140 62 52
-0.035121 0.434423 0.162119 132 57 46
-0.030708 0.434882 0.166306 124 55 42
-0.027066 0.436566 0.181673 127 59 48
-0.023430 0.438325 0.197712 136 55 54
-0.019515 0.439699 0.210243 136 54 53
-0.015447 0.440875 0.220973 136 54 54
-0.011194 0.441786 0.229278 140 55 55
-0.007147 0.443091 0.241181 140 55 55
-0.003332 0.444862 0.257336 140 55 55
0.000411 0.446840 0.275381 132 50 50
0.004333 0.448577 0.291220 132 49 49
0.008567 0.449804 0.302420 132 48 47
0.012827 0.451040 0.313692 134 48 46
0.017279 0.451953 0.322017 136 49 48
0.022115 0.452135 0.323681 138 49 50
0.027226 0.451753 0.320194 140 49 51
0.032234 0.451571 0.318536 143 51 54
0.048437 0.448241 0.288165 141 53 55
0.053227 0.448456 0.290119 143 55 58
0.057364 0.450283 0.306781 205 83 80
0.061759 0.451570 0.318529 207 83 77
0.071172 0.452719 0.329010 208 81 77
0.331837 0.449512 0.299753 212 83 79
0.336806 0.449770 0.302109 216 87 83
0.341694 0.449736 0.301800 217 88 84
0.346329 0.448878 0.293969 216 89 82
0.351757 0.450569 0.309394 214 87 80
0.356233 0.449265 0.297500 219 91 86
0.375992 0.449759 0.302009 219 91 85
0.380733 0.449357 0.298343 214 92 85
0.385811 0.449812 0.302493 215 96 86
0.390552 0.449434 0.299042 188 77 74
0.394802 0.447930 0.285321 182 75 70
0.404169 0.447077 0.277542 179 72 68
0.409088 0.447191 0.278583 176 72 68
-0.118563 0.403064 -0.162217 170 67 63
-0.114950 0.403773 -0.155830 160 60 56
-0.113796 0.407139 -0.125486 149 52 47
-0.112623 0.410573 -0.094530 143 48 42
-0.111505 0.414159 -0.062211 147 53 48
-0.110763 0.418260 -0.025237 150 58 52
-0.108459 0.420705 -0.003202 151 59 53
-0.102382 0.418887 -0.019590 150 59 53
-0.087416 0.417026 -0.036360 151 60 53
-0.083706 0.417924 -0.028269 152 62 55
-0.073363 0.427589 0.058847 150 65 58
-0.070979 0.430458 0.084716 152 68 60
-0.067619 0.432122 0.099712 152 62 60
-0.064471 0.434124 0.117761 152 61 60
-0.061221 0.436054 0.135157 150 59 58
-0.031655 0.440981 0.179569 148 57 56
-0.027336 0.441642 0.185525 148 54 56
-0.023397 0.442941 0.197230 148 54 56
-0.019473 0.444316 0.209627 150 56 58
-0.015302 0.445332 0.218786 151 57 59
-0.011193 0.446494 0.229262 150 56 58
-0.007150 0.447822 0.241234 151 57 59
-0.003147 0.449279 0.254363 146 55 56
0.000658 0.451161 0.271329 142 51 52
0.004425 0.453197 0.289686 142 51 50
0.008750 0.454261 0.299271 141 49 47
0.013139 0.455249 0.308182 141 47 45
0.017476 0.456390 0.318466 143 48 47
0.022172 0.456851 0.322621 145 48 49
0.048315 0.453314 0.290733 146 49 52
0.053036 0.453706 0.294272 148 51 54
0.057409 0.454982 0.305770 145 52 56
0.061800 0.456292 0.317582 148 56 60
0.071118 0.457707 0.330332 148 58 61
0.076009 0.457836 0.331499 148 58 61
0.080835 0.458160 0.334418 148 59 59
0.085928 0.457705 0.330314 204 80 78
0.331790 0.454140 0.298180 207 81 78
0.336822 0.454634 0.302636 211 83 79
0.341715 0.454612 0.302440 212 84 79
0.346433 0.454017 0.297075 216 88 82
0.351979 0.456086 0.315719 217 93 85
0.356325 0.454344 0.300026 218 95 87
0.361258 0.454454 0.301009 211 97 84
0.375980 0.454532 0.301716 193 80 77
0.380743 0.454186 0.298593 191 79 74
0.385522 0.453897 0.295988 186 75 69
0.390048 0.453011 0.288006 184 73 69
0.394527 0.452065 0.279474 181 70 67
0.399030 0.451224 0.271900 176 66 65
0.403806 0.451041 0.270244 172 63 62
0.408642 0.450997 0.269848 169 64 61
0.413515 0.451032 0.270165 168 66 62
-0.246181 0.376503 -0.436267 168 68 63
-0.119126 0.403375 -0.196861 167 68 63
-0.115752 0.404287 -0.188737 164 67 61
-0.111952 0.404765 -0.184479 161 65 59
-0.110092 0.407362 -0.161336 163 67 61
-0.108668 0.410508 -0.133312 158 69 62
-0.107630 0.414168 -0.100707 154 61 61
-0.106962 0.418343 -0.063507 153 59 59
-0.105311 0.421506 -0.035328 152 58 57
-0.074176 0.433137 0.068291 155 59 60
-0.071314 0.435425 0.088678 156 60 61
-0.067282 0.436209 0.095666 156 59 61
-0.063867 0.437864 0.110405 155 59 61
-0.028082 0.447491 0.196175 153 58 61
-0.023676 0.448065 0.201295 149 54 56
-0.019481 0.449013 0.209740 147 52 54
-0.015034 0.449572 0.214719 146 50 52
-0.010854 0.450618 0.224038 145 49 51
-0.006603 0.451581 0.232616 147 50 51
-0.002509 0.452867 0.244077 149 51 52
0.001198 0.454927 0.262425 151 53 54
0.004899 0.457091 0.281705 152 54 56
0.009496 0.457622 0.286437 150 56 57
0.052797 0.459084 0.299458 151 58 59
0.061942 0.460751 0.314317 150 59 59
0.071147 0.462470 0.329631 150 59 60
0.076326 0.461779 0.323472 150 60 61
0.081457 0.461178 0.318121 151 60 61
0.086783 0.459941 0.307098 196 80 78
0.091599 0.460223 0.309606 198 79 77
0.336818 0.459425 0.302500 205 80 77
0.341649 0.459189 0.300400 210 83 80
0.346466 0.458926 0.298053 214 85 81
0.351996 0.460966 0.316225 217 89 84
0.356228 0.458849 0.297370 221 94 87
0.361025 0.458563 0.294817 198 82 79
0.375578 0.458257 0.292092 195 79 75
0.380341 0.457936 0.289236 194 78 74
0.384826 0.456931 0.280284 192 76 72
0.389151 0.455595 0.268374 191 74 71
0.393808 0.455122 0.264163 191 74 71
0.398492 0.454741 0.260769 192 77 73
0.403139 0.454297 0.256810 191 81 75
0.407853 0.454024 0.254378 190 80 75
0.412629 0.453894 0.253228 188 79 73
0.417210 0.453367 0.248528 187 78 73
-0.116495 0.404745 -0.221385 186 77 71
-0.113693 0.406246 -0.208165 185 75 69
-0.110184 0.407017 -0.201370 184 73 67
-0.107596 0.408821 -0.185488 180 73 68
-0.105745 0.411491 -0.161966 177 70 65
-0.104263 0.414650 -0.134152 177 73 67
-0.102801 0.417915 -0.105396 180 76 71
-0.101286 0.421207 -0.076399 157 63 61
-0.071508 0.440211 0.090964 155 61 59
-0.067163 0.440583 0.094234 160 62 63
-0.010414 0.454548 0.217228 161 63 64
0.005459 0.460800 0.272283 161 63 64
0.052631 0.464294 0.303058 160 63 64
0.057405 0.464614 0.305874 158 61 64
0.062073 0.465229 0.311293 155 58 61
0.066530 0.466453 0.322066 153 56 59
0.071213 0.467128 0.328016 151 54 57
0.076371 0.466481 0.322318 151 54 57
0.081602 0.465572 0.314312 151 53 55
0.086922 0.464322 0.303299 151 53 54
0.091649 0.464877 0.308192 153 55 56
0.096291 0.465758 0.315952 156 58 59
0.101533 0.464634 0.306053 154 59 60
0.107128 0.462144 0.284124 155 61 61
0.112782 0.459207 0.258259 153 62 61
0.118027 0.457617 0.244254 153 62 61
0.123002 0.456982 0.238657 151 60 61
0.128035 0.456033 0.230305 195 79 76
0.321796 0.462873 0.290545 199 81 77
0.326802 0.463362 0.294845 207 83 77
0.331881 0.464087 0.301231 211 86 81
0.336786 0.464116 0.301488 217 90 85
0.341520 0.463540 0.296415 198 82 78
0.346401 0.463506 0.296116 198 80 77
0.351804 0.465165 0.310731 196 78 75
0.356001 0.462939 0.291119 196 78 75
0.360732 0.462477 0.287057 198 80 77
0.365955 0.463479 0.295882 198 80 77
0.370667 0.462977 0.291457 198 82 78
0.375015 0.461516 0.278588 191 82 76
0.379753 0.461173 0.275573 187 78 72
0.384123 0.459908 0.264431 188 78 72
0.388372 0.458419 0.251312 190 79 73
0.393036 0.458014 0.247751 189 77 71
0.397810 0.457891 0.246664 184 75 70
0.402549 0.457695 0.244940 183 75 70
0.407180 0.457267 0.241172 181 76 70
0.411751 0.456731 0.236454 183 78 73
0.416225 0.456017 0.230166 161 64 65
0.420317 0.454550 0.217243 162 64 64
0.425005 0.454351 0.215489 164 66 65
0.429534 0.453851 0.211084 160 63 65
-0.117663 0.405659 -0.249313 158 61 62
-0.114844 0.407100 -0.236764 155 58 59
-0.112522 0.409116 -0.219218 155 57 58
-0.109075 0.409948 -0.211969 154 56 56
-0.105976 0.411189 -0.201171 154 56 55
-0.103968 0.413690 -0.179395 155 57 57
-0.102035 0.416344 -0.156287 156 58 59
0.010899 0.464416 0.262270 158 60 63
0.052969 0.468258 0.295721 160 63 65
0.057717 0.468623 0.298898 156 62 64
0.062422 0.469125 0.303266 156 62 64
0.066902 0.470270 0.313236 199 83 79
0.071447 0.471310 0.322288 205 87 82
0.076391 0.471255 0.321815 212 88 82
0.081667 0.470198 0.312606 217 92 86
0.086942 0.469066 0.302754 213 94 85
0.091671 0.469620 0.307581 205 83 81
0.096352 0.470379 0.314182 203 81 78
0.101674 0.468954 0.301777 204 80 75
0.107519 0.465497 0.271678 203 79 73
0.113113 0.462695 0.247280 202 78 70
0.118299 0.461262 0.234808 205 81 73
0.123400 0.460044 0.224205 205 83 74
0.336809 0.469006 0.302229 207 85 77
0.341504 0.468280 0.295914 206 85 81
0.346276 0.467878 0.292410 203 83 79
0.351403 0.468666 0.299274 198 80 75
0.355690 0.466746 0.282552 197 80 74
0.360448 0.466397 0.279513 195 79 73
0.365467 0.466841 0.283380 194 77 71
0.369968 0.465779 0.274136 192 74 69
0.374384 0.464551 0.263446 190 72 69
0.379092 0.464178 0.260195 191 73 70
0.383493 0.463033 0.250223 191 75 73
0.387801 0.461722 0.238812 195 79 77
0.392445 0.461305 0.235180 161 64 65
0.397145 0.461044 0.232908 158 61 62
0.401965 0.461074 0.233167 159 61 62
0.406565 0.460607 0.229104 158 60 60
0.410985 0.459769 0.221810 157 59 58
0.415371 0.458900 0.214243 157 59 59
0.419513 0.457564 0.202610 158 60 61
0.424305 0.457616 0.203065 160 62 65
0.428920 0.457313 0.200422 162 64 67
0.433580 0.457111 0.198667 181 71 72
-0.124333 0.408012 -0.264234 194 75 77
-0.121621 0.409526 -0.251196 199 79 81
-0.118284 0.410409 -0.243595 206 83 81
-0.115082 0.411460 -0.234549 206 89 81
-0.112900 0.413655 -0.215649 203 86 78
-0.109305 0.414338 -0.209772 207 87 78
-0.106172 0.415558 -0.199273 208 88 79
0.053622 0.471411 0.281562 212 90 83
0.058209 0.472148 0.287907 210 88 82
0.062815 0.472880 0.294209 205 83 81
0.067311 0.473964 0.303541 204 81 79
0.071734 0.475323 0.315240 205 81 76
0.076386 0.476100 0.321931 203 79 73
0.081613 0.475182 0.314025 205 81 73
0.086821 0.474256 0.306060 209 85 77
0.091649 0.474503 0.308186 210 88 79
0.096481 0.474759 0.310388 209 87 79
0.101864 0.473083 0.295959 209 87 83
0.107792 0.469257 0.263021 203 85 80
0.113212 0.467048 0.244007 199 82 77
0.118278 0.466063 0.235523 197 81 75
0.123472 0.464441 0.221561 197 80 75
0.128780 0.462149 0.201828 194 76 72
0.133522 0.462257 0.202760 193 75 71
0.138461 0.461409 0.195462 194 76 72
0.341591 0.473390 0.298604 192 76 73
0.346153 0.472245 0.288745 196 80 78
0.351010 0.472166 0.288061 141 67 55
0.355450 0.470761 0.275971 163 65 66
0.360309 0.470745 0.275836 162 64 65
0.365274 0.471046 0.278424 161 63 63
0.369720 0.469832 0.267975 158 60 61
0.374032 0.468324 0.254993 159 59 59
0.378719 0.467922 0.251527 161 60 60
0.383280 0.467214 0.245432 162 61 61
0.387751 0.466318 0.237723 165 64 64
0.392355 0.465799 0.233252 165 67 66
0.396865 0.465087 0.227120 164 66 65
0.401714 0.465202 0.228112 163 66 65
0.406354 0.464836 0.224965 198 79 81
0.410758 0.463967 0.217482 214 92 85
0.415125 0.463059 0.209667 214 93 85
0.419246 0.461676 0.197760 212 94 84
0.424025 0.461716 0.198102 204 87 77
0.433408 0.461443 0.195753 201 82 73
-0.124069 0.411800 -0.266601 202 82 73
-0.122085 0.414106 -0.246974 205 82 75
-0.119079 0.415362 -0.236274 209 85 79
-0.115778 0.416327 -0.228063 210 85 82
-0.113405 0.418345 -0.210884 210 85 82
0.054694 0.473458 0.258309 209 86 82
0.059285 0.474112 0.263879 209 86 83
0.063809 0.474990 0.271351 209 87 83
0.068173 0.476365 0.283058 210 87 83
0.072376 0.478297 0.299505 210 86 81
0.076761 0.479815 0.312426 209 85 79
0.081861 0.479239 0.307527 208 80 76
0.097038 0.477659 0.294072 208 79 75
0.102346 0.476157 0.281283 207 78 74
0.108213 0.472441 0.249654 211 82 78
0.113473 0.470762 0.235356 212 85 80
0.118446 0.470097 0.229700 212 86 80
0.123599 0.468599 0.216941 212 90 83
0.128853 0.466498 0.199059 201 83 80
0.133559 0.466761 0.201296 199 81 76
0.138595 0.465406 0.189758 197 79 74
0.345907 0.476178 0.281470 193 77 73
0.350454 0.475089 0.272198 199 83 79
0.354910 0.473789 0.261124 189 78 72
0.373611 0.471883 0.244904 189 79 73
0.378257 0.471400 0.240789 189 80 74
0.382977 0.471143 0.238598 186 82 74
0.387659 0.470801 0.235693 181 80 71
0.392256 0.470269 0.231159 149 70 58
0.396609 0.469171 0.221812 135 57 45
0.401376 0.469112 0.221311 138 54 46
0.406086 0.468926 0.219727 132 47 39
0.410611 0.468332 0.214669 141 51 45
0.415004 0.467479 0.207406 151 60 53
0.419075 0.465981 0.194654 163 71 61
0.423755 0.465822 0.193305 170 77 68
-0.125315 0.417193 -0.255406 163 65 66
-0.122802 0.418968 -0.240462 161 63 64
-0.119812 0.420266 -0.229534 160 60 61
-0.116689 0.421449 -0.219572 160 59 59
0.004731 0.471788 0.204274 163 62 62
0.050544 0.476479 0.243768 165 64 64
0.055620 0.475822 0.238238 208 88 79
0.060323 0.476116 0.240710 208 88 79
0.064800 0.477046 0.248545 210 88 81
0.068998 0.478822 0.263496 209 87 80
0.073036 0.481178 0.283328 206 84 77
0.077311 0.482979 0.298493 204 83 75
0.082258 0.482815 0.297111 209 89 80
0.087526 0.481600 0.286886 203 86 76
0.092710 0.480579 0.278292 196 77 67
0.097710 0.480116 0.274386 198 78 69
0.102865 0.479056 0.265464 202 79 72
0.108567 0.475842 0.238403 204 80 74
0.113714 0.474532 0.227371 205 80 77
0.118664 0.473909 0.222129 205 80 77
0.123707 0.472829 0.213037 207 84 80
0.128764 0.471570 0.202437 208 86 82
0.133497 0.471730 0.203781 209 87 83
0.138674 0.469665 0.186392 210 87 83
0.378011 0.475446 0.235068 210 87 81
0.382808 0.475411 0.234775 209 86 80
0.387627 0.475437 0.234994 210 83 78
0.392255 0.474979 0.231140 209 81 76
0.396540 0.473702 0.220389 207 79 74
0.401163 0.473304 0.217035 210 82 77
0.405946 0.473298 0.216983 211 83 78
0.410656 0.473125 0.215530 212 86 80
0.415093 0.472357 0.209062 215 93 86
-0.135491 0.418880 -0.275315 203 86 81
-0.133664 0.421307 -0.255106 199 82 77
-0.129305 0.421092 -0.256897 192 77 74
-0.126602 0.422659 -0.243847 194 79 74
-0.004501 0.467055 0.125894 195 80 75
-0.001184 0.469606 0.147141 197 83 78
0.001644 0.473213 0.177185 171 74 68
0.005498 0.474951 0.191654 162 66 60
0.010622 0.474199 0.185389 159 61 56
0.014370 0.476255 0.202518 153 54 50
0.051133 0.479716 0.231341 155 55 49
0.056310 0.478748 0.223281 164 63 57
0.061081 0.478811 0.223799 175 72 65
0.065476 0.479914 0.232987 167 66 67
0.069575 0.481931 0.249787 164 63 63
0.073604 0.484287 0.269411 162 60 60
0.077888 0.486025 0.283881 163 60 61
0.082665 0.486333 0.286446 165 62 63
0.087952 0.484996 0.275314 168 65 66
0.098335 0.482688 0.256089 208 79 77
0.103350 0.482038 0.250674 206 78 75
0.108934 0.479166 0.226755 208 80 75
0.113843 0.478726 0.223096 206 78 72
0.118836 0.477894 0.216164 202 77 67
0.123919 0.476590 0.205305 203 83 73
0.128796 0.476102 0.201241 188 77 72
0.133500 0.476392 0.203653 194 81 76
0.138866 0.473335 0.178195 204 79 76
0.219313 0.477557 0.213360 204 79 76
0.382703 0.479844 0.232407 206 81 78
0.387498 0.479816 0.232172 209 84 81
0.392203 0.479558 0.230024 209 84 81
0.396458 0.478199 0.218701 210 86 82
0.400930 0.477434 0.212330 211 87 81
0.405783 0.477607 0.213770 211 88 82
0.410619 0.477733 0.214824 211 89 82
0.415003 0.476841 0.207398 210 89 82
0.419075 0.475310 0.194645 208 88 81
0.423654 0.474933 0.191503 209 86 80
0.432594 0.473787 0.181959 206 82 76
-0.133411 0.425116 -0.257325 205 78 71
-0.024187 0.465450 0.074975 207 80 73
-0.021565 0.468870 0.103154 211 82 76
-0.010796 0.466167 0.080886 213 84 78
-0.006844 0.467367 0.090767 216 92 86
-0.004291 0.471238 0.122660 203 87 81
-0.000507 0.472915 0.136476 199 83 77
0.002548 0.476088 0.162620 191 78 75
0.006470 0.477669 0.175643 196 78 75
0.011987 0.476062 0.162407 198 80 76
0.015838 0.477865 0.177257 202 84 79
0.019870 0.479362 0.189597 176 71 68
0.024406 0.479829 0.193437 171 66 62
0.041931 0.483443 0.223212 166 62 56
0.046633 0.483672 0.225102 170 65 59
0.051502 0.483486 0.223568 180 73 68
0.056678 0.482482 0.215302 184 77 72
0.061480 0.482430 0.214869 185 78 73
0.065886 0.483483 0.223546 186 79 74
0.070052 0.485293 0.238457 167 66 66
0.074200 0.487275 0.254790 163 61 62
0.078543 0.488791 0.267274 164 61 62
0.083194 0.489434 0.272572 167 64 65
0.088486 0.488005 0.260802 170 67 68
0.119116 0.481410 0.206462 204 79 78
0.124297 0.479603 0.191575 203 73 72
0.129049 0.479598 0.191541 201 71 70
0.133688 0.480149 0.196076 198 69 65
0.139163 0.476445 0.165557 198 70 65
0.173226 0.467527 0.092089 201 75 65
0.177965 0.466393 0.082745 194 81 75
0.182859 0.463371 0.057846 198 75 72
0.187558 0.461887 0.045623 203 79 76
0.192161 0.461263 0.040481 205 81 78
0.205403 0.471468 0.124557 208 84 81
0.209880 0.477834 0.177008 210 84 82
0.214553 0.481090 0.203829 211 86 82
0.219331 0.479662 0.192062 212 88 82
0.224081 0.478791 0.184887 212 89 83
0.228885 0.482994 0.219512 212 91 84
0.233604 0.480275 0.197111 210 90 83
0.238324 0.479197 0.188237 209 89 82
0.392119 0.484053 0.228237 209 87 80
0.396368 0.482668 0.216833 206 82 76
0.400739 0.481656 0.208489 204 78 72
0.405627 0.481926 0.210718 205 79 73
0.410504 0.482157 0.212621 208 80 73
0.414810 0.481086 0.203795 211 83 77
-0.037181 0.461334 0.004671 215 89 84
-0.034028 0.463531 0.022581 204 86 81
-0.030613 0.465374 0.037606 200 81 76
-0.026633 0.466330 0.045394 200 82 77
-0.024219 0.470013 0.075413 197 80 75
-0.021560 0.473406 0.103076 194 79 75
-0.016310 0.472308 0.094126 198 81 78
-0.006349 0.470976 0.083266 202 80 78
-0.002918 0.473206 0.101442 204 83 81
0.001411 0.473793 0.106223 183 76 72
0.004966 0.475933 0.123674 181 70 68
0.008873 0.477458 0.136097 181 70 68
0.013709 0.477130 0.133430 186 75 71
0.017000 0.480052 0.157247 187 77 73
0.021067 0.481434 0.168511 188 78 74
0.025684 0.481665 0.170392 188 77 72
0.042777 0.486075 0.206335 189 76 71
0.047447 0.486329 0.208407 189 78 73
0.052211 0.486357 0.208639 165 63 64
0.057264 0.485614 0.202583 166 63 64
0.062127 0.485351 0.200436 169 66 67
0.066734 0.485793 0.204037 123 49 49
0.071171 0.486758 0.211904 206 82 85
0.075432 0.488313 0.224582 207 82 83
0.079665 0.490064 0.238850 213 85 85
0.084179 0.491032 0.246746 206 78 78
0.089538 0.489250 0.232219 197 67 66
0.124992 0.481160 0.166275 194 64 62
0.129684 0.481281 0.167264 201 69 66
0.134199 0.482293 0.175511 201 70 66
0.173863 0.466545 0.047148 197 68 62
0.178591 0.464947 0.034125 198 77 68
0.183516 0.460874 0.000925 196 86 75
0.205541 0.472573 0.096283 198 81 77
0.210015 0.477797 0.138866 199 81 78
0.214649 0.480453 0.160511 205 82 80
0.219368 0.479257 0.150763 209 85 83
0.224062 0.478386 0.143665 214 84 83
0.228806 0.482205 0.174795 214 86 83
0.233536 0.482244 0.175113 214 90 84
0.391973 0.488380 0.225130 213 91 85
0.396126 0.486747 0.211816 210 90 83
0.400472 0.485680 0.203117 210 89 82
0.405369 0.485992 0.205664 208 86 79
0.410233 0.486211 0.207447 205 81 75
0.414523 0.485107 0.198448 205 81 75
-0.034295 0.461086 -0.032952 209 82 75
-0.031067 0.463103 -0.016690 209 82 75
-0.028313 0.465983 0.006542 213 86 81
-0.025683 0.469180 0.032328 216 90 86
-0.024507 0.475022 0.079446 201 83 78
-0.021178 0.477276 0.097627 197 76 72
0.007027 0.476389 0.090473 195 76 71
0.011141 0.477417 0.098761 191 73 68
0.015243 0.478514 0.107611 187 71 66
0.018002 0.482530 0.139999 193 77 73
0.022167 0.483661 0.149121 192 83 76
0.026841 0.483710 0.149519 197 81 75
0.031167 0.484558 0.156353 197 79 74
0.035047 0.486496 0.171982 201 78 76
0.039003 0.488352 0.186953 206 84 82
0.043637 0.488626 0.189167 188 76 75
0.048291 0.488867 0.191104 189 78 74
0.052956 0.489091 0.192916 187 76 72
0.057821 0.488794 0.190518 185 74 70
0.062655 0.488560 0.188635 182 70 66
0.067560 0.488113 0.185029 177 64 59
0.072343 0.487995 0.184071 177 65 60
0.076689 0.489198 0.193777 183 72 68
0.080779 0.491285 0.210610 167 66 66
0.085281 0.492181 0.217839 167 66 65
0.090619 0.490323 0.202855 171 69 68
0.125822 0.482044 0.136078 118 46 48
0.130455 0.482259 0.137813 119 46 48
0.134889 0.483487 0.147718 122 47 47
0.174605 0.464537 -0.005122 124 49 49
0.179222 0.463317 -0.014957 199 83 79
0.184052 0.459515 -0.045623 199 83 78
0.214752 0.479281 0.113798 197 78 80
0.219406 0.478492 0.107427 198 77 79
0.224045 0.478219 0.105228 204 78 82
0.228726 0.481303 0.130105 205 79 81
0.233450 0.483432 0.147270 208 83 82
0.238148 0.483577 0.148440 210 83 83
0.242817 0.483031 0.144038 213 85 85
0.247570 0.484168 0.153212 212 84 84
0.395850 0.490728 0.206115 206 79 79
0.400174 0.489611 0.197107 201 72 71
0.405055 0.489907 0.199498 201 71 70
0.409911 0.490130 0.201295 199 68 65
0.414234 0.489109 0.193059 200 71 67
-0.038333 0.464789 -0.038265 216 91 85
-0.032980 0.463307 -0.050089 200 84 80
-0.029289 0.464536 -0.040284 206 83 82
-0.027098 0.468347 -0.009867 214 85 83
-0.025522 0.473356 0.030114 216 88 85
-0.024176 0.478957 0.074817 215 91 85
0.011918 0.480355 0.085971 215 93 86
0.016163 0.481127 0.092137 215 94 86
0.018852 0.485291 0.125365 210 90 83
0.022816 0.486835 0.137694 206 86 79
0.027305 0.487268 0.141144 205 86 78
0.031745 0.487835 0.145670 208 84 77
0.035888 0.489134 0.156041 205 81 74
0.039640 0.491454 0.174558 208 83 77
0.044083 0.492170 0.180270 211 86 81
0.048757 0.492331 0.181559 212 88 84
0.053461 0.492421 0.182276 211 89 84
0.058194 0.492440 0.182429 206 86 79
0.062888 0.492568 0.183446 200 79 72
0.068086 0.491250 0.172929 192 70 64
0.073130 0.490305 0.165384 188 68 64
0.077455 0.491508 0.174993 196 76 73
0.081418 0.493943 0.194422 187 81 74
0.086043 0.494373 0.197851 196 82 75
0.091206 0.493001 0.186908 200 85 78
0.116290 0.487367 0.141939 207 89 82
0.121362 0.485687 0.128531 188 75 72
0.126422 0.483900 0.114266 184 68 64
0.130929 0.484581 0.119705 180 59 55
0.135398 0.485525 0.127239 176 57 52
0.170536 0.465542 -0.032252 181 63 58
0.175110 0.464478 -0.040742 190 73 67
0.179522 0.464786 -0.038284 198 82 76
0.219430 0.479737 0.081042 170 69 68
0.224038 0.480605 0.087972 169 69 66
0.228685 0.482949 0.106675 107 40 44
0.233390 0.485642 0.128169 109 40 43
0.238096 0.486735 0.136895 112 39 43
0.242750 0.486189 0.132533 115 40 45
0.247429 0.486277 0.133238 118 43 47
0.252310 0.489361 0.157857 118 43 46
0.257053 0.489820 0.161515 120 44 47
0.399940 0.493689 0.192397 122 46 49
0.404822 0.494007 0.194932 120 45 45
0.409763 0.494448 0.198458 123 48 48
-0.660162 0.468857 -0.040580 128 50 51
-0.056125 0.456076 -0.141538 131 52 53
-0.054333 0.459838 -0.111820 133 53 53
-0.043296 0.469974 -0.031754 197 81 77
-0.038156 0.468862 -0.040537 200 84 80
-0.032268 0.466478 -0.059374 202 82 80
-0.028305 0.467242 -0.053335 200 78 77
-0.026508 0.471737 -0.017831 201 74 76
-0.025007 0.476911 0.023042 203 75 76
-0.022501 0.480496 0.051358 204 74 75
-0.018579 0.481659 0.060540 206 75 75
0.012308 0.484064 0.079540 211 78 78
0.017167 0.483520 0.075242 212 83 81
0.020386 0.486523 0.098961 213 85 83
0.023951 0.488895 0.117702 211 86 84
0.027943 0.490405 0.129625 206 81 80
0.032401 0.490900 0.133535 204 79 78
0.036853 0.491434 0.137757 206 82 80
0.040509 0.493954 0.157659 203 80 78
0.044719 0.495210 0.167585 215 87 85
0.058657 0.495818 0.172390 216 92 86
0.063122 0.496555 0.178207 216 93 85
0.068411 0.494940 0.165449 216 94 85
0.073562 0.493635 0.155141 208 91 83
0.077939 0.494648 0.163140 206 89 81
0.082008 0.496716 0.179480 209 87 80
0.086865 0.496312 0.176292 203 81 74
0.091774 0.495701 0.171461 204 80 74
0.096828 0.494528 0.162193 205 81 75
0.117149 0.488356 0.113447 209 85 79
0.122292 0.486181 0.096260 209 86 79
0.127180 0.484968 0.086678 204 82 75
0.131531 0.486232 0.096664 198 76 69
0.136079 0.486630 0.099811 190 68 61
0.141509 0.482319 0.065758 185 64 60
0.160394 0.478507 0.035648 184 63 61
0.165792 0.472093 -0.015021 180 63 61
0.170911 0.466855 -0.056393 184 68 66
0.175457 0.465743 -0.065174 189 78 72
0.179671 0.467678 -0.049892 190 79 73
0.228649 0.484939 0.086455 183 79 73
0.233316 0.487207 0.104366 184 79 73
0.238007 0.488772 0.116728 191 78 71
0.242658 0.488742 0.116489 199 85 77
0.247285 0.488295 0.112959 208 91 83
0.252050 0.490078 0.127043 192 79 75
0.256739 0.490369 0.129346 186 70 66
0.261663 0.493286 0.152388 181 60 56
0.399564 0.497394 0.184831 177 57 53
0.404399 0.497622 0.186634 182 64 59
0.409421 0.498291 0.191924 191 74 69
-0.671749 0.474509 -0.030463 198 82 77
-0.665556 0.473673 -0.037001 93 37 40
-0.657305 0.471832 -0.051392 103 40 46
-0.649131 0.470010 -0.065635 104 37 42
-0.118213 0.447165 -0.244253 108 39 42
-0.116218 0.449760 -0.223963 112 39 43
-0.060894 0.454752 -0.184935 115 41 45
-0.057757 0.456383 -0.172184 118 43 45
-0.056449 0.460784 -0.137769 119 45 47
-0.054513 0.464374 -0.109702 120 44 46
-0.052086 0.467326 -0.086624 119 44 46
-0.049255 0.469744 -0.067718 121 46 46
-0.046181 0.471857 -0.051201 121 46 46
-0.042661 0.473321 -0.039753 125 46 49
-0.038195 0.473285 -0.040031 127 48 51
-0.031798 0.470027 -0.065503 130 50 51
-0.028073 0.471189 -0.056419 133 52 53
-0.026477 0.476071 -0.018252 197 81 77
-0.023965 0.479519 0.008703 199 78 76
-0.020250 0.480940 0.019817 200 77 76
0.022253 0.486951 0.066811 205 77 79
0.025333 0.490344 0.093338 203 75 76
0.033057 0.493933 0.121403 202 72 73
0.037675 0.494032 0.122178 205 73 74
0.041366 0.496441 0.141008 209 77 77
0.045432 0.498020 0.153353 212 82 81
0.049918 0.498583 0.157755 215 87 86
0.068428 0.499514 0.165039 216 92 86
0.073504 0.498426 0.156527 215 92 85
0.078055 0.498908 0.160296 208 88 81
0.082496 0.499778 0.167103 201 81 74
0.087599 0.498493 0.157054 201 79 72
0.092250 0.498684 0.158547 200 77 71
0.097134 0.498048 0.153576 207 80 75
0.102242 0.496525 0.141669 208 81 76
0.107385 0.494742 0.127729 204 76 72
0.112784 0.491764 0.104440 198 70 65
0.117956 0.489493 0.086688 190 61 55
0.123180 0.486775 0.065439 189 62 57
0.127938 0.485968 0.059124 203 76 72
0.132169 0.487653 0.072305 184 75 69
0.160754 0.480426 0.015798 185 76 69
0.166116 0.474021 -0.034276 192 82 71
0.171165 0.469099 -0.072763 203 91 81
0.175625 0.468555 -0.077012 195 82 75
0.242540 0.490688 0.096027 192 77 71
0.247183 0.491014 0.098579 188 70 65
0.251861 0.491779 0.104558 187 67 64
0.256541 0.492355 0.109061 190 69 67
0.261490 0.495903 0.136802 195 78 76
0.266639 0.500739 0.174616 99 39 38
0.271634 0.503209 0.193928 95 38 38
0.399129 0.500926 0.176072 95 38 40
0.403828 0.500846 0.175452 92 35 38
-0.720317 0.489140 0.048941 91 34 37
-0.713608 0.488126 0.041093 91 34 35
-0.699459 0.483572 0.005843 92 35 36
-0.688869 0.480669 -0.016618 96 36 35
-0.680898 0.478994 -0.029586 97 37 35
-0.674233 0.477931 -0.037814 100 35 36
-0.668231 0.477178 -0.043641 104 39 39
-0.661953 0.476283 -0.050566 107 40 40
-0.653549 0.474340 -0.065603 112 44 45
-0.645987 0.472791 -0.077593 110 44 44
-0.635442 0.469753 -0.101104 108 42 45
-0.625676 0.467071 -0.121864 106 39 43
-0.619419 0.466112 -0.129287 106 38 42
-0.116660 0.449411 -0.258543 109 40 43
-0.115410 0.452905 -0.231497 112 41 43
-0.068583 0.457772 -0.193831 114 42 44
-0.064245 0.457631 -0.194926 117 44 44
-0.060351 0.458130 -0.191059 118 44 44
-0.058266 0.461322 -0.166357 119 45 45
-0.057277 0.466259 -0.128147 119 45 45
-0.055076 0.469502 -0.103048 121 46 46
-0.052326 0.471997 -0.083741 121 46 46
-0.049538 0.474513 -0.064262 123 44 48
-0.045907 0.475762 -0.054599 126 46 50
-0.041215 0.475326 -0.057974 126 46 48
-0.037085 0.475806 -0.054257 130 49 51
-0.031147 0.473257 -0.073986 134 51 52
-0.028019 0.475435 -0.057129 169 66 73
-0.026133 0.479857 -0.022904 202 89 80
0.034180 0.495821 0.100647 196 77 79
0.042675 0.497748 0.115557 198 77 77
0.046562 0.499716 0.130792 200 78 77
0.050887 0.500633 0.137888 201 76 73
0.073629 0.502655 0.153539 202 75 73
0.078377 0.502509 0.152411 205 72 72
0.083143 0.502293 0.150733 205 74 73
0.088292 0.500759 0.138866 208 80 78
0.093019 0.500601 0.137642 212 84 83
0.097930 0.499760 0.131132 216 88 86
0.103044 0.498085 0.118169 215 88 85
0.108168 0.496233 0.103838 214 90 84
0.113405 0.493762 0.084715 213 91 84
0.118815 0.490333 0.058171 208 88 81
0.124077 0.487250 0.034315 201 81 74
0.128686 0.486939 0.031901 198 76 69
0.132847 0.488809 0.046377 198 75 69
0.137453 0.488563 0.044472 204 77 72
0.142452 0.486126 0.025616 205 77 72
0.146574 0.488510 0.044063 203 74 70
0.150661 0.491417 0.066561 197 68 63
0.155704 0.488386 0.043106 190 61 55
0.161034 0.482872 0.000425 181 57 55
0.166263 0.477258 -0.043023 185 62 60
0.171168 0.473392 -0.072946 187 73 72
0.175583 0.473254 -0.074014 187 74 73
0.242368 0.491384 0.066304 185 75 69
0.247041 0.492979 0.078651 189 79 73
0.251692 0.493733 0.084485 197 87 77
0.256411 0.495182 0.095702 202 90 80
0.261350 0.498859 0.124163 196 84 78
0.266443 0.503337 0.158816 193 79 73
0.271434 0.505995 0.179392 191 76 72
-0.818606 0.498662 0.087614 193 76 73
-0.720259 0.491432 0.032217 196 81 78
-0.715328 0.491247 0.030792 103 43 41
-0.709478 0.490621 0.025998 101 41 39
-0.697095 0.486857 -0.002842 96 36 34
-0.687098 0.484206 -0.023153 92 36 36
-0.679712 0.482792 -0.033984 95 40 38
-0.672855 0.481622 -0.042952 94 37 37
-0.666124 0.480502 -0.051536 91 34 35
-0.659376 0.479362 -0.060268 90 32 35
-0.651076 0.477445 -0.074959 88 30 34
-0.643632 0.475932 -0.086548 89 32 32
-0.633080 0.472854 -0.110132 90 33 32
-0.624016 0.470491 -0.128240 94 33 31
-0.618753 0.470019 -0.131856 95 33 31
-0.609605 0.467574 -0.150589 98 32 31
-0.070841 0.459140 -0.215208 101 34 34
-0.067538 0.460437 -0.205273 105 36 37
-0.063853 0.461219 -0.199280 105 36 37
-0.060563 0.462606 -0.188658 108 39 40
-0.058771 0.466271 -0.160576 110 42 43
-0.057879 0.471416 -0.121151 109 42 44
-0.055387 0.474258 -0.099378 111 44 45
-0.052211 0.476118 -0.085122 111 44 44
-0.049341 0.478526 -0.066672 108 42 46
-0.045263 0.479061 -0.062575 107 40 44
0.043674 0.499775 0.096140 108 39 43
0.047401 0.502114 0.114056 109 40 44
0.083551 0.505549 0.140379 112 42 45
0.088456 0.504792 0.134581 115 44 47
0.093598 0.503140 0.121920 116 45 46
0.098783 0.501204 0.107084 118 47 48
0.103795 0.499779 0.096165 118 47 48
0.108682 0.498737 0.088186 118 47 48
0.113695 0.497083 0.075510 191 82 74
0.119261 0.492891 0.043395 190 82 72
0.124505 0.489772 0.019491 191 79 72
0.128995 0.489927 0.020681 196 77 79
0.133149 0.491774 0.034835 197 76 76
0.155840 0.491942 0.036123 195 74 73
0.161093 0.486856 -0.002847 198 74 71
0.166175 0.482299 -0.037768 198 72 70
0.170953 0.479514 -0.059105 201 71 71
0.242234 0.492846 0.043046 202 73 73
0.246924 0.495335 0.062119 206 79 77
0.251625 0.497214 0.076518 210 84 84
0.256406 0.499654 0.095214 198 81 78
0.261311 0.502965 0.120577 216 88 86
0.266288 0.506334 0.146390 214 86 84
0.941685 0.424710 -0.479015 212 88 84
0.942215 0.422967 -0.492373 213 90 85
-0.840804 0.506810 0.115090 215 93 86
-0.833596 0.505696 0.106642 209 89 82
-0.828532 0.505511 0.105234 201 81 74
-0.820541 0.504038 0.094062 199 70 64
-0.809403 0.501164 0.072259 198 69 63
-0.806263 0.501808 0.077142 201 72 68
-0.800043 0.501087 0.071672 202 73 70
-0.793652 0.500282 0.065571 200 72 70
-0.789143 0.500316 0.065829 193 67 65
-0.785149 0.500583 0.067849 186 63 61
-0.777582 0.499232 0.057603 186 64 62
-0.752831 0.500486 0.067113 190 69 67
-0.731335 0.498989 0.055760 197 76 73
-0.715699 0.493710 0.015711 198 77 73
-0.709125 0.492724 0.008230 193 72 68
-0.705058 0.492936 0.009842 190 69 65
-0.695008 0.490254 -0.010507 195 79 74
-0.685521 0.487820 -0.028975 101 41 40
-0.677613 0.486133 -0.041770 98 40 39
-0.670320 0.484732 -0.052399 93 36 34
-0.663038 0.483322 -0.063094 90 36 35
-0.655488 0.481765 -0.074904 93 40 36
-0.647369 0.479909 -0.088987 93 37 35
-0.639538 0.478178 -0.102116 93 35 34
-0.629566 0.475351 -0.123562 92 33 32
-0.621568 0.473495 -0.137645 89 30 29
-0.616657 0.473191 -0.139951 90 27 28
-0.607115 0.470514 -0.160258 92 27 28
-0.602393 0.470289 -0.161964 93 28 29
-0.153865 0.448493 -0.327312 94 29 31
-0.116265 0.457079 -0.262177 96 29 31
-0.069614 0.461526 -0.228442 96 29 31
-0.066258 0.462734 -0.219281 99 31 29
-0.063481 0.464825 -0.203417 107 36 33
-0.060968 0.467372 -0.184095 108 37 34
-0.059253 0.471200 -0.155053 113 39 39
-0.058083 0.475982 -0.118776 116 42 42
-0.055621 0.478903 -0.096617 114 42 44
-0.051746 0.479684 -0.090694 114 43 45
-0.048243 0.481087 -0.080052 113 44 47
0.037004 0.498025 0.048448 112 44 47
0.041162 0.499033 0.056090 110 43 47
0.045357 0.499997 0.063406 110 43 48
0.049047 0.502342 0.081196 111 43 50
0.084585 0.506691 0.114190 110 41 47
0.089479 0.505843 0.107752 109 40 45
0.095037 0.502556 0.082816 109 40 45
0.100382 0.499812 0.062005 111 42 47
0.105189 0.498933 0.055334 113 44 49
0.109766 0.498910 0.055161 114 45 50
0.114447 0.498444 0.051625 115 46 49
0.119893 0.494598 0.022448 189 79 75
0.125019 0.491858 0.001658 192 74 72
0.138217 0.493444 0.013696 188 70 69
0.142299 0.495875 0.032133 190 69 69
0.146364 0.498699 0.053557 191 69 69
0.150897 0.498918 0.055221 193 70 70
0.155935 0.495757 0.031241 193 70 70
0.161021 0.491792 0.001161 194 69 70
0.165856 0.489158 -0.018821 195 71 70
0.170527 0.487465 -0.031667 197 74 72
0.246783 0.497205 0.042227 203 81 82
0.251537 0.500356 0.066132 179 78 71
0.256375 0.503779 0.092096 189 80 75
0.261236 0.506640 0.113803 202 82 79
0.266074 0.508664 0.129153 207 86 82
0.940208 0.431852 -0.453556 215 87 85
0.940521 0.429938 -0.468080 213 86 83
0.940623 0.427932 -0.483297 212 87 84
0.941691 0.426458 -0.494475 212 88 84
-0.858813 0.515149 0.143470 214 92 85
-0.847274 0.512164 0.121045 207 87 80
-0.840422 0.511204 0.113832 200 80 73
-0.834544 0.510664 0.109774 197 68 62
-0.829609 0.510535 0.108806 194 66 60
-0.820846 0.508707 0.095075 199 70 66
-0.809441 0.505687 0.072387 200 71 68
-0.805923 0.506168 0.076001 198 70 69
-0.800556 0.505822 0.073402 194 68 66
-0.794756 0.505278 0.069315 188 65 63
-0.790101 0.505248 0.069093 183 61 60
-0.785950 0.505447 0.070589 181 60 58
-0.778977 0.504357 0.062399 183 62 59
-0.782631 0.508143 0.090838 184 63 60
-0.785744 0.511713 0.117656 189 68 65
-0.777680 0.510130 0.105769 204 84 80
-0.761931 0.504951 0.066861 92 37 35
-0.752222 0.502551 0.048837 89 37 35
-0.729534 0.502610 0.049274 91 36 35
-0.712026 0.496371 0.002412 89 34 32
-0.705277 0.495282 -0.005768 91 33 32
-0.702972 0.496346 0.002219 90 30 30
-0.694351 0.494330 -0.012919 88 28 27
-0.684968 0.491921 -0.031017 88 28 26
-0.675661 0.489526 -0.049010 96 29 31
-0.667971 0.487909 -0.061157 99 31 29
-0.660666 0.486468 -0.071981 104 33 31
-0.652396 0.484529 -0.086546 109 37 35
-0.095509 0.461128 -0.262329 113 39 40
-0.092879 0.463135 -0.247251 114 41 42
-0.091179 0.466444 -0.222400 113 42 44
-0.068614 0.464203 -0.239234 114 43 45
-0.065404 0.465614 -0.228630 113 44 47
-0.063295 0.468695 -0.205487 112 44 47
-0.061324 0.472077 -0.180085 110 44 51
-0.059451 0.475711 -0.152782 109 42 49
-0.057804 0.479806 -0.122026 108 41 47
-0.055719 0.483343 -0.095458 110 42 48
-0.051243 0.483173 -0.096730 111 42 48
-0.046888 0.483194 -0.096574 112 44 49
0.025812 0.486697 -0.070257 164 63 65
0.038886 0.497869 0.013662 161 64 64
0.042856 0.499243 0.023985 186 79 74
0.046735 0.500926 0.036624 186 76 72
0.050528 0.502924 0.051637 188 76 72
0.054887 0.503488 0.055875 190 74 71
0.085628 0.507733 0.087758 187 69 66
0.090779 0.505856 0.073663 181 62 61
0.096501 0.501779 0.043031 180 61 61
0.101800 0.498985 0.022043 181 61 61
0.106430 0.498581 0.019008 182 62 63
0.110810 0.499156 0.023328 185 64 63
0.115243 0.499559 0.026359 186 64 64
0.120369 0.496935 0.006649 184 62 62
0.125348 0.494748 -0.009781 185 64 64
0.129996 0.493957 -0.015726 187 66 66
0.134467 0.493979 -0.015558 189 70 71
0.138714 0.495209 -0.006321 181 79 71
0.142383 0.499852 0.028556 184 81 73
0.146289 0.503630 0.056940 184 77 70
0.150901 0.503379 0.055052 179 72 65
0.155936 0.500206 0.031222 183 74 69
0.939669 0.435379 -0.455756 185 75 70
0.939665 0.433276 -0.471550 189 76 72
0.939774 0.431256 -0.486723 195 79 77
0.941952 0.430364 -0.493428 211 89 82
-0.877275 0.523694 0.172826 209 87 80
-0.868088 0.521749 0.158356 210 88 81
-0.859286 0.519955 0.145012 213 91 84
-0.848884 0.517442 0.126315 208 86 79
-0.842285 0.516587 0.119959 201 79 72
-0.837238 0.516414 0.118669 194 68 58
-0.832115 0.516205 0.117116 191 64 55
-0.822484 0.513976 0.100533 200 68 65
-0.810265 0.510562 0.075142 202 71 69
-0.805042 0.510280 0.073038 199 69 70
-0.800831 0.510454 0.074332 196 68 69
-0.792209 0.510714 0.076272 190 65 66
-0.789076 0.511389 0.081287 184 61 61
-0.783396 0.510892 0.077592 180 59 59
-0.785478 0.513994 0.100669 181 60 60
-0.785160 0.516005 0.115630 183 62 62
-0.777568 0.514627 0.105381 193 74 72
-0.766441 0.511572 0.082654 171 71 68
-0.757074 0.509321 0.065907 168 68 65
-0.754607 0.510327 0.073392 169 69 66
-0.755693 0.513039 0.093566 171 69 67
-0.751741 0.513360 0.095955 169 67 65
-0.739543 0.509710 0.068802 171 69 67
-0.725808 0.505281 0.035851 98 41 39
-0.708884 0.499257 -0.008960 96 40 38
-0.702486 0.498321 -0.015919 90 34 35
-0.700396 0.499494 -0.007199 87 31 31
-0.692179 0.497652 -0.020897 85 29 29
-0.683159 0.495395 -0.037692 86 28 28
-0.673313 0.492702 -0.057720 88 28 28
-0.088434 0.466849 -0.250038 87 26 27
-0.072574 0.467989 -0.241561 87 25 27
-0.067637 0.466884 -0.249777 87 26 28
-0.064974 0.469095 -0.233334 88 27 29
-0.062765 0.472047 -0.211369 87 27 29
-0.060976 0.475726 -0.184003 88 28 30
-0.059047 0.479301 -0.157409 90 28 28
-0.056733 0.482384 -0.134475 89 27 27
-0.054586 0.485831 -0.108835 99 30 33
-0.050220 0.485808 -0.109005 105 33 37
-0.045591 0.485354 -0.112383 110 38 42
0.016443 0.482873 -0.130839 111 39 43
0.021404 0.481492 -0.141115 113 42 46
0.028480 0.484981 -0.115155 113 44 47
0.031699 0.487584 -0.095798 113 45 48
0.041024 0.496984 -0.025865 110 44 50
0.044762 0.498830 -0.012134 108 43 51
0.048476 0.500834 0.002770 107 42 49
0.052404 0.502372 0.014213 106 41 47
0.056885 0.502466 0.014910 109 42 49
0.087104 0.507231 0.050361 110 42 49
0.092403 0.504639 0.031076 112 44 49
0.098005 0.500751 0.002158 163 64 65
0.103001 0.498874 -0.011811 163 64 65
0.107426 0.499093 -0.010176 184 75 71
0.111790 0.499582 -0.006539 184 72 69
0.116151 0.500127 -0.002489 187 74 71
0.120865 0.499145 -0.009791 188 69 68
0.125665 0.497671 -0.020758 187 66 66
0.130502 0.495872 -0.034140 183 62 62
0.135155 0.494838 -0.041835 180 59 59
0.139163 0.497181 -0.024403 178 59 61
0.142618 0.502956 0.018557 181 62 64
0.146494 0.506872 0.047689 180 62 61
0.151121 0.506442 0.044491 179 61 60
0.939953 0.435129 -0.486001 177 59 58
0.942488 0.434420 -0.491280 177 59 59
-0.889927 0.531791 0.198323 179 60 62
-0.879079 0.529122 0.178656 177 61 63
-0.869271 0.526887 0.162192 181 67 69
-0.859981 0.524863 0.147276 189 79 75
-0.851668 0.523254 0.135426 186 79 72
-0.845511 0.522594 0.130565 179 75 67
-0.800987 0.515033 0.074858 184 73 67
-0.794358 0.516219 0.083594 180 68 62
-0.792758 0.517616 0.093888 184 71 66
-0.788333 0.517708 0.094564 189 75 70
-0.787250 0.519367 0.106786 194 78 74
-0.781617 0.518899 0.103340 198 81 79
-0.773941 0.517460 0.092739 209 87 80
-0.768437 0.517040 0.089642 207 85 78
-0.760710 0.515554 0.078697 209 87 80
-0.753005 0.514066 0.067729 215 93 86
-0.735970 0.512472 0.055990 210 91 84
-0.722240 0.507994 0.022997 210 92 84
-0.708019 0.503231 -0.012090 206 87 82
-0.702323 0.502631 -0.016512 204 82 76
-0.698868 0.503138 -0.012782 200 77 71
-0.689871 0.500886 -0.029372 192 67 57
-0.206192 0.452300 -0.387328 198 69 65
-0.204282 0.454282 -0.372725 201 73 70
-0.090831 0.468550 -0.267601 199 73 73
-0.087181 0.469222 -0.262652 196 73 72
-0.084035 0.470609 -0.252434 190 68 69
-0.081597 0.473028 -0.234611 183 63 63
-0.076978 0.472410 -0.239163 179 60 60
-0.071275 0.470210 -0.255375 183 63 63
