ply
format ascii 1.0
element vertex 1185
property float x
property float y
property float z
property uchar red
property uchar green
property uchar blue
end_header
0.706601 -0.106042 -0.516594 162 162 132
0.599520 -0.084064 -0.325308 162 163 137
0.613168 -0.083176 -0.346583 162 163 139
0.676039 -0.014951 -0.386648 162 163 172
0.619281 -0.083864 -0.330103 162 164 138
0.674864 -0.136469 -0.447927 162 165 143
0.404518 0.301543 0.204729 163 134 122
0.410441 0.303245 0.228433 163 135 121
-0.366539 -0.155151 0.077977 163 136 118
0.322258 0.117257 0.366843 163 137 119
0.360428 0.125882 0.314123 163 137 125
0.373669 0.253944 0.273562 163 138 117
0.382951 0.248533 0.262256 163 139 121
0.382783 0.257812 0.258089 163 140 118
0.382923 0.253255 0.261562 163 140 119
-0.528628 -0.063513 -0.646332 163 140 129
0.396188 0.261024 0.232370 163 141 123
0.419062 0.306532 0.208869 163 141 124
0.283947 0.094487 0.498497 163 141 130
0.483295 -0.036680 0.038746 163 142 131
-0.486102 -0.057555 -0.613635 163 142 136
0.391632 0.256654 0.238382 163 143 124
-0.530510 -0.067362 -0.639583 163 143 134
0.486039 0.260180 0.141638 163 145 129
-0.498107 -0.070453 -0.651392 163 145 133
0.700650 0.146187 -0.247428 163 146 118
-0.534165 -0.078116 -0.639584 163 146 138
0.623695 -0.000607 -0.294926 163 146 140
0.699954 0.141943 -0.252131 163 147 119
0.463860 0.279681 0.089777 163 147 130
0.697977 0.155756 -0.208379 163 148 126
0.431147 0.294246 0.167697 163 148 126
-0.556893 -0.107739 -0.686649 163 148 129
-0.536277 -0.077873 -0.645059 163 148 139
0.494099 0.073680 -0.113037 163 151 112
-0.500591 -0.118202 -0.628456 163 152 141
-0.503298 -0.114397 -0.632042 163 152 144
0.724637 0.132940 -0.280753 163 153 130
-0.519132 -0.091725 -0.654313 163 153 144
0.773004 0.112519 -0.287756 163 154 135
0.566796 0.060149 -0.249489 163 154 137
0.749610 0.036035 -0.422681 163 154 145
-0.535892 -0.084964 -0.646429 163 154 147
0.713608 0.133196 -0.271850 163 155 128
0.738623 0.124426 -0.296371 163 155 129
0.672049 -0.094633 -0.440537 163 155 131
0.676168 -0.094696 -0.439196 163 155 131
0.639392 -0.096909 -0.392056 163 155 135
0.629901 -0.101725 -0.373248 163 155 136
0.604226 -0.096290 -0.320032 163 155 136
0.650427 -0.094020 -0.369740 163 155 137
0.541048 0.043775 -0.168989 163 155 141
0.734336 0.099748 -0.322708 163 156 129
0.633934 -0.093868 -0.373067 163 156 135
0.645573 -0.093738 -0.375914 163 156 135
0.665197 -0.096231 -0.406500 163 156 136
0.778578 0.103235 -0.348843 163 156 136
0.562492 0.056050 -0.250740 163 156 138
0.757691 0.036032 -0.421578 163 156 153
0.714205 0.079471 -0.347021 163 157 131
0.682426 -0.090374 -0.449617 163 157 132
0.730984 0.116446 -0.292728 163 157 132
0.638142 -0.090002 -0.371575 163 157 134
0.541796 0.035357 -0.161106 163 157 135
0.634139 -0.084721 -0.309560 163 157 138
-0.546167 -0.115527 -0.674015 163 157 139
0.437998 0.235966 0.205388 163 157 164
0.657976 -0.097797 -0.373153 163 158 141
0.601861 -0.092928 -0.305609 163 158 143
0.599021 -0.093403 -0.294894 163 158 144
0.710726 -0.108661 -0.537650 163 159 134
0.715400 -0.107743 -0.554811 163 159 135
0.778382 0.119064 -0.349939 163 159 138
0.592436 -0.060405 -0.316169 163 159 149
0.718261 -0.107460 -0.560117 163 160 135
0.754774 -0.118012 -0.503504 163 160 141
0.679363 -0.140549 -0.444014 163 161 143
-0.534002 -0.126649 -0.665993 163 161 157
0.783636 0.111791 -0.320536 163 163 133
0.618421 -0.079598 -0.336952 163 163 144
-0.361503 -0.155091 0.157503 164 128 111
-0.365787 -0.154949 0.154966 164 129 113
0.641717 0.174656 -0.151314 164 134 88
-0.371553 -0.155284 0.080291 164 137 121
0.414885 0.302717 0.221077 164 137 121
0.405622 0.312664 0.228220 164 139 122
0.369334 0.245197 0.288253 164 141 120
0.260043 0.321294 0.043410 164 141 123
0.365965 0.126271 0.331646 164 142 123
0.578302 -0.069144 -0.296288 164 144 135
-0.505994 -0.056751 -0.635632 164 144 137
-0.467185 -0.076832 -0.586120 164 145 135
0.472004 0.274066 0.073582 164 147 131
-0.593302 -0.123192 -0.775608 164 147 137
-0.521042 -0.078357 -0.634146 164 147 137
0.696493 0.151262 -0.218586 164 148 122
-0.350351 -0.127335 0.064079 164 150 132
0.642769 0.003975 -0.336906 164 150 163
-0.526107 -0.088740 -0.642281 164 151 146
0.649971 -0.003880 -0.343610 164 151 148
0.570380 0.039636 -0.215535 164 153 135
-0.540566 -0.120657 -0.705820 164 154 136
0.612286 -0.106627 -0.353691 164 154 136
0.599191 -0.097503 -0.293451 164 154 144
0.716301 0.132926 -0.281222 164 155 130
0.740521 0.071209 -0.382922 164 155 180
0.709407 0.133185 -0.272221 164 156 128
0.731643 0.124629 -0.288607 164 156 133
-0.562693 -0.118029 -0.691320 164 156 145
0.711714 0.124744 -0.284190 164 157 128
0.631361 -0.094370 -0.362090 164 157 136
0.653681 -0.097700 -0.375209 164 157 139
0.666848 -0.151719 -0.449269 164 157 141
-0.538292 -0.080603 -0.663634 164 157 141
0.595739 -0.089676 -0.287740 164 157 145
0.677964 -0.079812 -0.427179 164 158 135
0.536074 0.002470 -0.221410 164 158 136
0.685116 -0.060335 -0.431927 164 158 153
0.547522 0.022920 -0.190386 164 159 135
0.780827 0.103929 -0.313380 164 159 135
0.790933 0.113630 -0.412542 164 159 137
0.781243 0.116016 -0.311034 164 161 136
0.707662 -0.124803 -0.578435 164 161 139
0.684896 -0.071846 -0.433373 164 161 139
0.689018 -0.041051 -0.432117 164 161 176
0.569461 0.064151 -0.263603 164 162 144
-0.529943 -0.106683 -0.641618 164 162 158
0.711551 -0.121191 -0.577530 164 163 136
0.687960 -0.067779 -0.439009 164 163 154
-0.528284 -0.182832 -0.673448 164 165 152
0.653370 0.147936 -0.193839 165 135 83
0.654364 0.144008 -0.186246 165 135 90
0.382389 0.266725 0.248322 165 136 120
0.424201 0.140253 0.309636 165 138 121
0.409785 0.145273 0.316785 165 139 119
0.345586 0.111350 0.311691 165 139 127
0.388521 0.125112 0.279435 165 142 125
-0.378745 -0.150119 0.068861 165 142 128
0.336545 0.102160 0.341204 165 142 129
0.418887 0.301594 0.205435 165 143 125
-0.365666 -0.111850 0.020800 165 144 127
0.489329 -0.046144 0.058813 165 144 137
0.423327 0.301129 0.198968 165 145 127
0.355136 0.231548 0.302737 165 145 128
-0.534151 -0.074529 -0.639634 165 145 136
0.636939 -0.008261 -0.319445 165 145 158
0.359369 0.235316 0.282706 165 146 125
0.444529 0.297906 0.154072 165 146 130
0.483548 0.078302 -0.079491 165 147 115
0.487391 0.065307 -0.086794 165 147 120
0.486384 0.265089 0.146499 165 147 128
0.698831 0.146711 -0.231370 165 148 119
0.410131 0.265111 0.222016 165 148 132
0.483842 0.271972 0.110674 165 149 132
0.345301 0.217074 0.302091 165 149 139
0.697970 0.142410 -0.237233 165 150 120
-0.561789 -0.080313 -0.669970 165 150 133
-0.561144 -0.076671 -0.672167 165 150 135
-0.567683 -0.090124 -0.686602 165 150 137
0.699263 0.137713 -0.256793 165 151 122
0.702508 0.137528 -0.262942 165 151 126
0.574850 -0.089568 -0.290262 165 151 149
-0.573063 -0.093952 -0.680618 165 152 140
0.644705 -0.023535 -0.352644 165 152 142
0.528613 -0.089147 -0.300031 165 153 127
-0.517803 -0.099294 -0.645926 165 153 143
0.598198 -0.127384 -0.336431 165 153 145
0.549513 -0.022484 -0.213243 165 154 134
0.539598 -0.022164 -0.228546 165 154 135
-0.539439 -0.123911 -0.709714 165 154 137
0.559240 0.085351 -0.200602 165 156 133
0.692587 0.083669 -0.329329 165 156 137
0.616914 -0.144506 -0.380822 165 156 140
-0.304068 -0.107283 0.121293 165 156 152
0.676755 -0.087177 -0.435268 165 157 133
0.735663 0.124612 -0.289234 165 157 134
0.814209 0.101155 -0.454990 165 158 129
0.708793 0.129010 -0.276264 165 158 129
0.627929 -0.084032 -0.326074 165 158 138
0.644102 -0.086690 -0.357115 165 158 142
0.734724 0.039866 -0.393722 165 158 157
0.712818 0.075412 -0.355833 165 159 134
0.635318 -0.090400 -0.362596 165 159 136
0.692973 -0.078562 -0.457135 165 159 136
0.629767 -0.091255 -0.343324 165 160 138
0.640213 -0.084054 -0.325553 165 160 144
0.662236 -0.153198 -0.427041 165 160 146
0.746442 0.070887 -0.418178 165 160 172
0.671224 -0.080134 -0.419458 165 161 140
0.638282 -0.084737 -0.309182 165 161 142
0.688992 -0.033335 -0.432282 165 161 181
0.682940 -0.082854 -0.446233 165 162 136
0.624507 -0.088246 -0.320954 165 162 139
0.555690 0.052108 -0.193737 165 162 148
0.711635 -0.124887 -0.577036 165 164 139
0.624466 -0.084232 -0.321281 165 164 140
0.701696 -0.103157 -0.499677 165 165 138
0.681872 -0.143798 -0.453255 165 165 145
0.681827 -0.018560 -0.401329 165 165 177
0.597826 -0.084909 -0.305066 165 167 141
0.725720 0.091706 -0.325609 165 167 141
0.656832 0.139425 -0.199788 166 137 86
0.382620 0.262326 0.254056 166 138 122
0.308721 0.108745 0.442508 166 139 125
0.386870 0.266204 0.239828 166 140 121
0.632916 0.142904 -0.221449 166 141 114
0.370087 0.092010 0.308966 166 142 114
0.391921 0.266527 0.245090 166 142 124
0.514250 -0.081689 -0.181822 166 142 128
0.391796 0.261614 0.242194 166 143 124
0.513166 -0.077035 -0.194290 166 143 128
0.387388 0.252721 0.252262 166 144 125
0.405239 0.264993 0.220086 166 145 130
0.384167 0.120599 0.292392 166 146 123
0.496014 -0.055940 0.086847 166 147 122
0.422816 0.286429 0.189202 166 148 127
0.395650 0.255588 0.220234 166 148 129
0.491194 0.060962 -0.094349 166 149 121
0.700156 0.151135 -0.222342 166 151 125
0.427282 0.286062 0.183783 166 151 129
-0.385747 -0.131464 0.056718 166 151 133
-0.495235 -0.071146 -0.634806 166 151 142
0.694121 0.063611 -0.346128 166 151 144
0.694657 0.142599 -0.231210 166 152 121
-0.573622 -0.153269 -0.737700 166 152 134
0.662026 0.109159 -0.255062 166 152 136
0.463267 0.246989 0.152475 166 154 142
-0.542916 -0.195943 -0.685294 166 155 140
0.696203 0.133844 -0.249276 166 156 127
0.696265 0.079649 -0.331909 166 156 136
-0.519715 -0.095398 -0.652204 166 156 146
0.715979 0.128817 -0.283303 166 157 130
0.720131 0.128821 -0.283151 166 157 130
0.705575 0.133244 -0.270157 166 157 130
0.671705 0.104105 -0.304437 166 157 133
0.735421 0.120533 -0.290739 166 157 133
0.699867 0.079613 -0.334944 166 158 133
0.705967 0.091769 -0.321645 166 158 136
0.626151 -0.113626 -0.371252 166 158 137
0.546200 0.043775 -0.159933 166 158 145
0.658848 -0.075578 -0.337984 166 158 147
-0.535947 -0.084368 -0.659118 166 158 148
0.712838 0.128994 -0.276863 166 159 130
0.642449 -0.090099 -0.369377 166 159 136
0.776925 0.112494 -0.288910 166 159 138
0.773417 0.116064 -0.308991 166 159 138
0.679980 -0.094662 -0.439920 166 159 139
0.629804 -0.145027 -0.434041 166 159 141
0.438389 0.231641 0.212330 166 159 160
0.741036 0.059466 -0.379855 166 159 187
0.709820 0.079445 -0.349205 166 160 132
0.679624 -0.090708 -0.442284 166 160 136
0.633359 -0.091100 -0.346815 166 160 137
0.677420 -0.083517 -0.430821 166 160 137
0.674912 -0.080061 -0.421210 166 160 138
0.626655 -0.087598 -0.336017 166 161 140
0.632216 -0.088098 -0.324409 166 161 140
0.635824 -0.087944 -0.327974 166 161 140
0.642582 -0.083522 -0.338308 166 161 147
0.684645 -0.064078 -0.435024 166 162 150
0.390681 0.213593 0.331254 166 162 156
0.687255 -0.075286 -0.443605 166 163 137
0.700480 -0.100203 -0.483281 166 163 139
0.669875 -0.069194 -0.401591 166 163 139
0.685737 -0.116646 -0.527860 166 163 146
0.677597 -0.124517 -0.455727 166 163 150
0.784738 0.112440 -0.291331 166 164 137
0.689758 -0.146029 -0.477738 166 164 148
0.758561 -0.126771 -0.482474 166 166 146
0.669380 -0.007277 -0.377474 166 173 177
0.377853 0.262444 0.256025 167 137 122
0.269614 0.324976 0.088910 167 139 118
0.246392 0.335745 0.055465 167 140 124
0.374956 0.111277 0.307711 167 141 120
0.379795 0.111242 0.305783 167 141 122
0.387067 0.261755 0.244549 167 142 123
0.396639 0.266370 0.242530 167 144 127
-0.456038 -0.059118 -0.570833 167 144 131
0.388727 0.110850 0.284376 167 144 134
0.339529 0.225189 0.271615 167 145 128
0.489235 -0.047763 0.120919 167 145 139
0.379730 0.116027 0.304105 167 147 130
0.384187 0.115808 0.292896 167 148 123
0.418879 0.287521 0.205283 167 148 128
0.391320 0.251506 0.231117 167 148 129
0.468137 0.270268 0.084574 167 148 132
-0.539928 -0.074296 -0.645048 167 148 136
-0.505166 -0.067397 -0.638705 167 148 136
0.587054 0.100988 -0.254913 167 150 123
0.524728 -0.089249 -0.297663 167 150 125
0.395209 0.250311 0.210297 167 150 131
0.485487 0.268891 0.133859 167 150 133
-0.505879 -0.084817 -0.649567 167 150 142
0.414343 0.273771 0.210165 167 151 132
-0.587794 -0.111930 -0.792954 167 151 136
-0.569052 -0.168420 -0.764078 167 152 132
-0.391980 -0.120512 0.016011 167 152 133
0.430199 0.223529 0.238150 167 152 149
0.705797 0.137355 -0.268685 167 153 128
-0.376129 -0.149132 0.133149 167 153 135
0.589386 0.093141 -0.234135 167 153 138
-0.361278 -0.128372 -0.004064 167 154 136
0.692235 0.079651 -0.331687 167 156 137
0.571704 0.056082 -0.242615 167 156 139
0.685708 0.083781 -0.320776 167 156 139
0.681464 0.087765 -0.321915 167 156 141
0.702220 0.133396 -0.264866 167 157 129
0.709710 0.116340 -0.297253 167 157 133
0.727716 0.128705 -0.287386 167 157 133
0.269816 0.340340 0.109627 167 157 133
0.645090 -0.142769 -0.408562 167 157 140
-0.524991 -0.092122 -0.646301 167 157 148
0.651206 -0.090335 -0.364071 167 158 140
-0.591863 -0.120188 -0.769171 167 158 143
0.653762 -0.141346 -0.431283 167 158 145
0.425392 0.223543 0.238433 167 158 154
0.692637 0.133964 -0.245099 167 159 125
0.705294 0.108235 -0.299269 167 159 135
0.637540 -0.104044 -0.405790 167 159 136
0.708221 0.067474 -0.359449 167 159 136
0.711373 0.091903 -0.313061 167 159 137
0.703907 0.095993 -0.308383 167 159 137
0.704656 0.100100 -0.303459 167 159 137
0.633218 -0.101472 -0.378483 167 159 138
0.696026 0.083614 -0.333498 167 159 138
0.705238 0.059608 -0.352707 167 159 142
0.647407 -0.086460 -0.362448 167 159 143
0.630620 -0.120022 -0.398144 167 159 144
0.704157 0.083615 -0.333443 167 160 133
0.701442 0.125113 -0.270076 167 160 133
0.703156 0.075578 -0.339969 167 160 134
0.707260 0.099922 -0.313220 167 160 137
0.541214 0.039574 -0.167246 167 160 142
-0.544602 -0.132061 -0.691882 167 160 144
0.645640 -0.083213 -0.345706 167 160 148
0.707355 0.079565 -0.339026 167 161 132
0.658269 -0.093960 -0.371059 167 161 144
0.381077 0.213930 0.338638 167 161 152
0.667767 -0.053140 -0.416086 167 161 154
0.706688 0.075543 -0.343335 167 162 132
0.735008 0.112396 -0.293294 167 162 135
0.637437 -0.087144 -0.346559 167 162 143
0.680324 -0.083224 -0.437643 167 163 138
0.778506 0.116197 -0.303337 167 163 139
0.669562 -0.065220 -0.403745 167 163 142
0.782689 0.112701 -0.279576 167 164 140
0.681696 -0.072035 -0.428542 167 164 141
0.394518 0.217233 0.305472 167 164 160
0.781217 0.104428 -0.287943 167 165 136
0.707751 -0.108925 -0.532726 167 165 138
0.677440 -0.135927 -0.456767 167 165 147
-0.536060 -0.118460 -0.684133 167 168 148
-0.524165 -0.133145 -0.675265 167 169 166
0.663501 -0.140461 -0.445414 167 170 153
0.629983 0.173626 -0.176768 168 138 92
-0.372988 -0.154226 0.142088 168 138 122
0.350231 0.101559 0.302824 168 140 127
0.345192 0.096681 0.298413 168 142 130
0.321839 0.121774 0.348636 168 143 124
0.654992 0.156706 -0.181445 168 144 91
0.283411 0.098936 0.455341 168 144 134
0.514584 -0.079947 -0.226345 168 145 130
0.387319 0.247879 0.250605 168 145 130
0.374367 0.245407 0.292086 168 146 125
0.400493 0.260354 0.221213 168 147 131
0.400885 0.265588 0.229788 168 147 131
0.414831 0.288520 0.219999 168 148 130
0.370256 0.111385 0.313612 168 149 124
0.399949 0.254946 0.209299 168 149 132
-0.537631 -0.074502 -0.640252 168 149 137
0.695165 0.146830 -0.227713 168 150 120
0.690395 0.146702 -0.231653 168 150 121
0.467330 0.273996 0.072532 168 151 134
0.472824 0.270335 0.085594 168 151 135
0.594615 -0.101353 -0.297419 168 151 149
-0.386998 -0.115955 0.013525 168 152 135
-0.591596 -0.119449 -0.780979 168 152 139
-0.589315 -0.115608 -0.788164 168 152 139
-0.568358 -0.171656 -0.766340 168 153 133
0.480955 0.269030 0.136030 168 153 134
-0.391067 -0.124707 0.011059 168 154 134
-0.569959 -0.150629 -0.726524 168 154 135
-0.449601 -0.064137 -0.535274 168 154 137
0.634092 -0.125915 -0.431369 168 154 145
-0.565430 -0.146922 -0.729807 168 155 141
0.656080 -0.046269 -0.386679 168 155 144
0.665665 0.104410 -0.288870 168 156 138
0.673754 0.112470 -0.289953 168 157 123
0.693656 0.138274 -0.238089 168 157 124
-0.450108 -0.067326 -0.548870 168 157 138
0.698861 0.133550 -0.259507 168 158 129
0.715345 0.124660 -0.287400 168 158 133
0.724018 0.128779 -0.284687 168 158 134
0.726781 0.124507 -0.293273 168 158 136
0.601264 -0.100733 -0.310626 168 158 146
0.698094 0.129328 -0.264682 168 159 130
0.739306 0.120498 -0.292170 168 159 132
0.702419 0.104366 -0.291094 168 159 133
0.742375 0.124369 -0.298558 168 159 134
0.697028 0.087694 -0.326852 168 159 138
0.603188 -0.099886 -0.328675 168 159 140
0.769998 0.116156 -0.305093 168 159 140
0.654552 -0.094057 -0.368939 168 159 142
0.700697 0.087656 -0.329487 168 160 135
0.673401 -0.087348 -0.431407 168 160 136
0.708289 0.108083 -0.306513 168 160 136
0.646601 -0.090144 -0.368366 168 160 138
0.702285 0.091809 -0.319047 168 160 138
0.699737 0.083584 -0.335804 168 161 134
0.704520 0.120870 -0.277157 168 161 134
0.461651 0.061392 -0.012284 168 161 138
0.709070 0.075431 -0.354014 168 162 134
0.711944 0.099992 -0.309372 168 162 137
0.716548 0.100052 -0.306105 168 162 137
0.712436 0.096031 -0.306194 168 162 138
0.548742 -0.034714 -0.221043 168 162 139
0.761848 0.123583 -0.328636 168 162 141
0.668267 -0.057133 -0.412647 168 162 151
0.742424 0.071096 -0.395273 168 162 182
0.777079 0.119447 -0.334510 168 163 141
0.672235 -0.061017 -0.412567 168 163 149
0.602005 -0.067602 -0.338512 168 163 151
0.774617 0.108670 -0.278457 168 164 141
0.678211 -0.072153 -0.425528 168 164 143
0.783800 0.105956 -0.408304 168 164 144
0.684980 -0.143467 -0.458433 168 164 147
0.661796 -0.123675 -0.402548 168 164 156
0.553428 -0.034831 -0.216313 168 165 139
0.721073 0.087660 -0.329232 168 165 139
0.684658 -0.075636 -0.434942 168 165 141
0.605252 -0.071328 -0.345163 168 165 150
0.684607 -0.067920 -0.435277 168 165 150
0.629959 -0.139215 -0.403148 168 166 149
0.657124 -0.141097 -0.435268 168 166 153
-0.536845 -0.109461 -0.655942 168 168 165
0.597026 -0.080613 -0.311870 168 170 146
-0.520229 -0.161361 -0.676446 168 171 173
0.355636 0.121138 0.318166 169 143 124
0.490899 -0.051224 0.080137 169 146 132
0.384802 0.111285 0.308140 169 146 137
0.485893 -0.042041 0.074683 169 147 139
0.384561 0.096735 0.302157 169 148 130
0.435584 0.293881 0.162520 169 149 129
-0.534574 -0.071007 -0.638123 169 149 139
-0.505526 -0.073470 -0.664236 169 150 138
0.482557 0.073865 -0.092723 169 151 119
0.686598 0.146793 -0.228855 169 152 124
0.648699 -0.027487 -0.352954 169 152 147
0.413709 0.263600 0.197394 169 153 136
0.479308 0.272082 0.112371 169 153 136
-0.551479 -0.190687 -0.705092 169 153 140
0.679434 0.023683 -0.307707 169 153 147
0.690106 0.142522 -0.233659 169 154 123
0.482286 0.265631 0.155152 169 154 134
-0.376303 -0.147722 0.107411 169 154 136
0.696995 0.138100 -0.243877 169 155 125
-0.568319 -0.100809 -0.684463 169 155 138
0.574195 -0.093343 -0.296248 169 155 154
0.644258 -0.138512 -0.414616 169 156 142
-0.503500 -0.107249 -0.631287 169 156 142
-0.531708 -0.089077 -0.635290 169 156 151
-0.495430 -0.063456 -0.647788 169 157 145
0.439346 0.265049 0.145876 169 158 139
0.719100 0.124599 -0.289756 169 159 134
0.715400 0.115959 -0.313462 169 159 135
0.717196 0.120255 -0.301952 169 159 135
0.703730 0.112638 -0.282395 169 159 136
0.681591 0.091778 -0.321041 169 159 137
0.722647 0.124504 -0.293393 169 159 137
0.695538 0.075612 -0.336731 169 159 138
0.645815 -0.141308 -0.431889 169 159 142
0.438394 0.226949 0.212413 169 159 149
0.689044 0.125120 -0.269798 169 160 129
0.707681 0.083570 -0.336919 169 160 133
0.693747 0.087770 -0.321566 169 160 139
0.674691 0.099940 -0.312241 169 160 145
-0.521013 -0.099211 -0.647506 169 160 151
0.664715 -0.078915 -0.353849 169 160 151
0.704159 0.079631 -0.333430 169 161 135
0.709288 0.087699 -0.326535 169 161 136
0.676234 -0.090869 -0.438760 169 161 137
0.704868 0.087666 -0.328809 169 161 137
0.731462 0.120558 -0.289738 169 161 137
0.705207 0.104195 -0.299839 169 161 138
0.706937 0.095876 -0.315328 169 161 139
0.647669 -0.140381 -0.446703 169 161 147
0.764456 0.063221 -0.405674 169 161 169
0.708004 0.124816 -0.281448 169 162 133
0.705163 0.129103 -0.272890 169 162 133
0.720060 0.108014 -0.309831 169 162 135
0.665618 -0.092476 -0.403575 169 162 143
0.638427 -0.143355 -0.399212 169 162 147
0.592429 -0.089981 -0.280669 169 162 150
0.730348 0.112321 -0.296700 169 163 138
0.790845 0.109271 -0.434057 169 163 141
-0.540599 -0.192807 -0.680844 169 163 146
0.640091 -0.086696 -0.356975 169 163 146
0.582760 0.051944 -0.256073 169 164 156
0.687481 -0.146701 -0.467445 169 165 149
0.761006 0.104001 -0.309743 169 166 142
0.766331 0.104141 -0.302583 169 166 142
0.617087 -0.075203 -0.347585 169 166 153
0.777389 0.104461 -0.286254 169 167 140
0.662691 -0.149542 -0.423882 169 167 149
-0.528983 -0.099339 -0.645061 169 167 163
0.706076 -0.109616 -0.519796 169 169 141
0.704339 -0.106541 -0.507032 169 170 141
0.599520 -0.080069 -0.325305 169 170 147
-0.524641 -0.175741 -0.673568 169 171 157
0.382199 0.271174 0.243625 170 133 117
0.371289 0.131368 0.342035 170 142 126
0.313878 0.113798 0.445581 170 143 127
0.264803 0.323185 0.066773 170 144 125
0.375298 0.106611 0.316796 170 145 125
0.241737 0.341009 0.012928 170 145 128
0.418514 0.291713 0.198124 170 151 131
0.464856 0.271598 0.104943 170 151 135
0.414805 0.283778 0.219475 170 152 132
0.419084 0.283101 0.209306 170 153 132
0.410147 0.274551 0.222358 170 153 135
0.380798 0.102008 0.331468 170 153 141
0.375471 0.101850 0.321380 170 153 143
0.481848 0.256010 0.148866 170 153 143
-0.488318 -0.064024 -0.633267 170 153 145
0.414573 0.278767 0.214787 170 155 133
0.431310 0.285171 0.170665 170 155 133
-0.385346 -0.116697 0.029316 170 155 137
-0.355409 -0.127471 0.066809 170 156 138
-0.566094 -0.178834 -0.762340 170 156 141
0.678034 0.121303 -0.259698 170 157 123
0.669425 0.104359 -0.291444 170 158 137
-0.502478 -0.084859 -0.648674 170 158 146
0.680633 0.121032 -0.270630 170 159 126
0.435335 0.265815 0.158092 170 159 140
0.714476 0.120477 -0.293014 170 160 136
0.356725 0.214532 0.351820 170 160 137
-0.370035 -0.116254 0.019880 170 160 138
0.687241 0.087931 -0.310332 170 160 139
0.690507 0.087851 -0.315910 170 160 140
-0.559888 -0.118187 -0.688672 170 160 150
0.686562 0.125422 -0.258249 170 161 129
0.681224 0.116386 -0.295289 170 161 131
0.719541 0.115967 -0.313122 170 161 135
0.700573 0.096079 -0.303335 170 161 137
0.655689 -0.090482 -0.360743 170 161 144
0.572959 0.047892 -0.230869 170 161 151
-0.522365 -0.103047 -0.642611 170 161 153
0.701811 0.129247 -0.267605 170 162 133
0.688907 0.096153 -0.298983 170 162 137
0.699123 0.075580 -0.339840 170 162 138
0.692492 0.100118 -0.302510 170 162 140
0.648357 -0.082805 -0.355464 170 162 151
0.568895 -0.062008 -0.268902 170 162 156
0.692318 0.124965 -0.275743 170 163 133
0.707182 0.120629 -0.286854 170 163 134
0.704805 0.124977 -0.275266 170 163 136
0.715088 0.091866 -0.315458 170 163 140
0.765239 0.112049 -0.308928 170 163 141
0.770473 0.119662 -0.325838 170 163 142
0.767303 0.119791 -0.320639 170 163 143
0.716771 0.096056 -0.304678 170 164 139
0.774351 0.119635 -0.326944 170 164 141
0.661161 -0.093598 -0.378978 170 164 147
0.682013 -0.060528 -0.426439 170 164 159
0.810486 0.108826 -0.454084 170 165 132
0.668931 -0.087186 -0.435076 170 165 137
0.794511 0.121893 -0.393376 170 165 142
0.648959 -0.144806 -0.437501 170 166 145
0.774222 0.104569 -0.280736 170 167 143
0.682437 -0.119173 -0.548825 170 167 152
0.753388 0.104067 -0.306358 170 168 139
0.682786 -0.148018 -0.447248 170 168 149
0.686473 -0.056782 -0.423004 170 168 161
-0.531564 -0.106286 -0.648865 170 168 164
-0.530155 -0.129330 -0.679590 170 170 161
0.274558 0.331892 0.117860 171 145 123
-0.542294 -0.071067 -0.636684 171 151 140
0.369336 0.240405 0.288322 171 152 129
-0.469003 -0.080808 -0.578876 171 152 143
0.422657 0.290886 0.186175 171 153 132
-0.571087 -0.162094 -0.757444 171 153 135
0.410200 0.269909 0.223441 171 154 137
0.474669 0.267531 0.112602 171 155 138
0.433401 -0.015378 0.391493 171 155 140
0.427270 0.290706 0.183564 171 156 134
0.418672 0.273199 0.201221 171 156 136
0.476888 0.265001 0.145095 171 157 138
-0.560540 -0.104226 -0.686461 171 157 139
0.680110 0.125767 -0.245017 171 158 124
0.673667 0.117188 -0.261170 171 158 126
-0.364343 -0.128718 0.091968 171 158 138
0.740145 0.047626 -0.431930 171 159 149
-0.534578 -0.088941 -0.638107 171 159 154
0.688748 0.083689 -0.327789 171 160 143
0.504065 0.065236 -0.097645 171 161 121
-0.372610 -0.115741 0.008956 171 161 139
-0.524183 -0.095550 -0.649213 171 161 152
0.699426 0.108563 -0.283561 171 162 135
0.725613 0.116261 -0.300631 171 162 136
0.677585 0.095787 -0.320539 171 162 140
0.682067 0.095834 -0.317766 171 162 140
-0.317024 -0.123862 0.085417 171 162 151
0.697159 0.125089 -0.270997 171 163 134
0.714630 0.107835 -0.318392 171 163 138
0.711626 0.103968 -0.311427 171 163 139
0.715677 0.103963 -0.311683 171 163 139
0.711569 0.107973 -0.311799 171 163 139
0.688693 0.100156 -0.300442 171 163 141
0.765382 0.123503 -0.331718 171 163 145
0.725647 0.108211 -0.300417 171 164 136
0.663317 -0.093009 -0.391896 171 164 146
0.668977 -0.077847 -0.380267 171 164 148
0.667321 -0.078510 -0.363859 171 164 149
0.572165 -0.065790 -0.277015 171 164 149
-0.529881 -0.092343 -0.641840 171 164 159
0.667031 -0.091673 -0.421144 171 165 140
0.674205 -0.083726 -0.425976 171 165 142
0.792089 0.113280 -0.427440 171 165 143
0.770997 0.123130 -0.345992 171 165 143
0.720853 0.100076 -0.304788 171 166 138
0.669198 -0.080686 -0.406247 171 166 146
0.678457 -0.064485 -0.423883 171 166 147
0.685032 -0.147311 -0.458092 171 166 150
0.765948 0.108119 -0.304807 171 167 144
0.675094 -0.076241 -0.419975 171 167 147
0.386172 0.214088 0.342082 171 167 160
-0.528951 -0.095755 -0.645172 171 167 161
0.672327 -0.148578 -0.438661 171 168 150
0.678426 -0.149529 -0.424090 171 168 150
0.758109 0.104139 -0.302679 171 169 142
-0.537013 -0.189280 -0.680797 171 169 151
0.612723 -0.079064 -0.350169 171 170 151
0.552178 0.027070 -0.186302 171 171 141
0.679555 -0.018799 -0.389857 171 171 181
0.594357 -0.141324 -0.368745 172 143 140
0.398683 0.115724 0.288627 172 145 128
0.250958 0.331014 0.052603 172 146 126
0.405825 0.140993 0.337947 172 147 126
0.414544 0.292825 0.214206 172 150 134
0.405193 0.269637 0.219090 172 151 136
0.648896 -0.031481 -0.351506 172 152 143
-0.569806 -0.165193 -0.761619 172 153 136
0.444791 0.293600 0.158525 172 153 137
0.449287 0.293342 0.154871 172 153 137
0.479143 0.253114 0.178116 172 154 140
0.423092 0.282114 0.194473 172 155 134
0.645455 -0.019692 -0.347078 172 156 152
0.419022 0.278330 0.208095 172 157 135
-0.499441 -0.107168 -0.632762 172 157 140
-0.370482 -0.129718 0.022394 172 158 139
-0.569838 -0.097549 -0.679357 172 158 140
0.467305 0.264823 0.142256 172 158 141
0.640793 0.007770 -0.321157 172 158 162
-0.553935 -0.077226 -0.659651 172 159 140
0.602646 0.031267 -0.191714 172 159 142
0.592570 0.088899 -0.243027 172 160 132
0.646211 0.000060 -0.341469 172 160 162
0.677364 0.116428 -0.293524 172 161 126
0.688062 0.129789 -0.247843 172 162 128
0.672360 0.108224 -0.299805 172 162 132
0.698798 0.091871 -0.315113 172 162 138
0.706417 0.116466 -0.291880 172 162 138
0.713421 0.116279 -0.299828 172 162 138
0.701389 0.100202 -0.297926 172 162 139
0.700527 0.116835 -0.276194 172 162 140
0.673952 0.107856 -0.317419 172 163 132
0.688318 0.092061 -0.302995 172 163 136
0.691609 0.091975 -0.308470 172 163 136
0.703026 0.108490 -0.287066 172 163 136
0.714488 0.111819 -0.319303 172 163 138
0.692425 0.096086 -0.302962 172 163 139
0.705785 0.112335 -0.296035 172 163 139
0.710325 0.083451 -0.345971 172 164 137
0.659274 -0.090343 -0.363890 172 164 148
0.651572 -0.086505 -0.361413 172 164 148
0.642939 -0.143602 -0.395262 172 164 150
0.641843 -0.139205 -0.403312 172 164 151
0.629152 -0.117148 -0.378973 172 164 153
0.678803 0.107967 -0.312089 172 165 134
0.710656 0.120524 -0.291089 172 165 136
0.712442 0.087614 -0.332408 172 165 140
0.667268 -0.074551 -0.364229 172 165 151
0.724992 0.104103 -0.304546 172 166 138
0.779035 0.121958 -0.390887 172 166 142
0.549054 -0.030657 -0.217892 172 166 143
0.789257 0.125610 -0.400243 172 166 145
0.670366 -0.073221 -0.398215 172 166 149
0.574259 0.113188 -0.257658 172 166 149
0.674777 -0.072286 -0.422118 172 167 147
0.743986 0.070967 -0.409434 172 167 184
0.549055 0.052158 -0.174666 172 168 158
0.685814 -0.022458 -0.401231 172 168 189
0.671602 -0.068616 -0.416878 172 169 145
0.681526 -0.149165 -0.429671 172 170 150
0.634046 -0.139269 -0.402264 172 170 152
0.659639 -0.140483 -0.445063 172 170 157
-0.534227 -0.185992 -0.677934 172 172 156
-0.552719 -0.139314 -0.688641 172 173 155
-0.520806 -0.157978 -0.674376 172 176 178
0.340746 0.096912 0.314493 173 148 136
0.401062 0.270550 0.233666 173 149 135
-0.449433 -0.055031 -0.582536 173 150 139
0.246379 0.353345 0.051392 173 152 129
-0.462473 -0.080976 -0.575090 173 152 141
0.440112 0.293644 0.159157 173 153 133
0.627985 0.011482 -0.293528 173 154 168
-0.486004 -0.061159 -0.614014 173 155 148
0.465955 0.268112 0.121687 173 156 140
-0.504589 -0.063200 -0.654325 173 156 148
-0.485990 -0.064775 -0.614066 173 156 148
0.694598 0.071575 -0.342968 173 156 151
0.482614 0.261298 0.159859 173 157 142
0.698197 0.067580 -0.345926 173 157 151
0.435259 0.284227 0.156750 173 158 136
-0.572310 -0.158970 -0.753461 173 158 141
0.417644 0.262599 0.181076 173 158 142
0.461737 0.263972 0.128681 173 159 141
0.471439 0.264299 0.133895 173 159 143
0.689543 0.138290 -0.237568 173 160 127
-0.388628 -0.125271 0.022425 173 160 139
-0.367564 -0.128317 0.083874 173 160 139
-0.384937 -0.132534 0.077764 173 160 140
0.670556 0.108567 -0.283376 173 161 135
0.675609 0.116820 -0.276840 173 162 127
0.675100 0.112039 -0.309377 173 162 128
0.689033 0.134079 -0.241102 173 163 129
0.695121 0.091914 -0.312374 173 163 139
0.696409 0.096072 -0.303754 173 163 139
0.712293 0.112089 -0.307117 173 163 139
0.720833 0.120181 -0.304916 173 163 141
0.694320 0.129398 -0.262105 173 164 134
0.685708 0.116446 -0.292734 173 164 135
0.742668 0.120383 -0.296772 173 164 137
0.726032 0.120353 -0.297989 173 164 141
-0.524109 -0.099108 -0.649479 173 164 156
0.690866 0.129531 -0.257271 173 165 131
0.690381 0.120578 -0.288939 173 165 136
0.677825 0.099819 -0.318872 173 165 144
0.684820 -0.098799 -0.433875 173 165 146
0.595301 -0.093553 -0.291509 173 165 154
0.695706 0.120779 -0.280810 173 166 137
0.764143 0.115916 -0.315299 173 166 145
0.664868 -0.089582 -0.381035 173 166 148
0.662203 -0.090001 -0.371607 173 166 150
0.670127 -0.077055 -0.399860 173 166 150
0.720602 0.104066 -0.306388 173 167 139
0.671953 -0.072585 -0.414489 173 167 150
-0.541285 -0.118051 -0.690953 173 168 146
0.590235 -0.073045 -0.299770 173 168 156
0.716717 -0.125359 -0.569160 173 169 144
0.777506 0.122314 -0.377245 173 169 145
0.775659 0.122629 -0.365175 173 169 147
0.681506 -0.075844 -0.429802 173 170 146
0.671809 -0.064792 -0.415467 173 170 148
0.595150 -0.081383 -0.292812 173 171 153
-0.529584 -0.103032 -0.642906 173 171 167
-0.529132 -0.098687 -0.657542 173 171 168
0.677511 -0.125981 -0.430211 173 173 157
0.396846 0.271398 0.247201 174 146 133
0.303552 0.108673 0.438257 174 147 133
-0.543115 -0.064004 -0.633781 174 151 140
-0.534701 -0.063852 -0.637668 174 151 140
0.679177 0.142892 -0.221855 174 152 119
0.380203 0.121097 0.316229 174 153 135
-0.361771 -0.112017 0.024445 174 153 136
0.460305 0.271693 0.106401 174 155 139
0.456069 0.285819 0.112933 174 155 139
0.686212 0.142588 -0.231557 174 156 125
0.399608 0.249825 0.201849 174 156 140
0.677766 0.126109 -0.231921 174 157 120
0.464237 0.275526 0.095508 174 157 140
0.469521 0.267060 0.105241 174 157 141
-0.504393 -0.059607 -0.655052 174 157 149
0.570946 0.035484 -0.210170 174 158 143
-0.564067 -0.090120 -0.686680 174 159 144
-0.495231 -0.067000 -0.648535 174 159 150
-0.389904 -0.121158 0.029391 174 160 141
-0.380386 -0.116589 0.027010 174 160 142
0.582885 0.096901 -0.254948 174 160 146
-0.389103 -0.126637 0.049983 174 161 140
0.468625 0.261452 0.162377 174 161 145
0.491964 0.073941 -0.084432 174 162 123
0.594448 0.031403 -0.226488 174 162 143
-0.501421 -0.114781 -0.625344 174 162 150
0.757203 0.127481 -0.332016 174 163 146
0.730751 0.043771 -0.393672 174 163 171
0.554372 0.093568 -0.206888 174 164 135
0.696928 0.100159 -0.300278 174 164 140
0.708974 0.112202 -0.302051 174 164 140
0.704171 0.116758 -0.279474 174 164 142
-0.560046 -0.183522 -0.747664 174 164 152
0.556158 0.043775 -0.189067 174 164 154
0.683881 0.120878 -0.276855 174 165 133
0.685527 0.112381 -0.293981 174 165 136
0.674098 0.103871 -0.316390 174 165 140
0.570516 0.060127 -0.253730 174 165 148
-0.534898 -0.088370 -0.649956 174 165 157
0.725745 0.112252 -0.299801 174 166 139
0.643466 -0.104758 -0.391394 174 166 142
0.672504 -0.090928 -0.437465 174 166 142
0.707820 0.104004 -0.309573 174 166 142
0.706367 0.067584 -0.345411 174 166 144
0.682604 0.099906 -0.314073 174 166 144
0.689512 0.112362 -0.294860 174 167 139
0.694502 0.116535 -0.288942 174 167 140
0.701003 0.120973 -0.273009 174 167 140
0.668063 -0.090767 -0.440994 174 168 142
0.672739 -0.053367 -0.409136 174 168 161
0.782770 0.101542 -0.435237 174 169 147
0.672457 -0.057187 -0.411052 174 169 158
0.760375 0.107939 -0.313440 174 170 146
0.670019 -0.083653 -0.427668 174 170 148
0.678095 -0.075985 -0.426306 174 170 149
0.681615 -0.064295 -0.429078 174 170 157
0.715909 -0.121405 -0.573893 174 171 144
0.674303 -0.068297 -0.425319 174 171 147
0.678247 -0.068298 -0.425288 174 171 147
0.752871 0.108022 -0.309437 174 172 143
0.591037 -0.081384 -0.292791 174 172 155
0.703546 -0.110038 -0.511905 174 174 148
-0.534726 -0.106192 -0.650569 174 174 171
-0.533715 -0.102430 -0.654159 174 174 174
-0.530814 -0.182513 -0.677263 174 176 161
-0.523981 -0.172013 -0.675922 174 177 165
0.649936 0.148141 -0.187564 175 144 95
0.379750 0.091953 0.304613 175 144 125
0.635288 0.169764 -0.168431 175 145 95
0.396933 0.276266 0.249162 175 146 133
0.409994 0.293170 0.219191 175 150 135
-0.380662 -0.152189 0.105773 175 150 136
0.378780 0.244731 0.279760 175 153 131
0.375355 0.096966 0.318286 175 154 141
-0.535153 -0.067504 -0.636057 175 155 145
0.365019 0.111221 0.304632 175 156 131
-0.511325 -0.073812 -0.656279 175 158 150
0.423239 0.277625 0.197301 175 160 138
0.427319 0.281448 0.184474 175 160 138
0.439064 0.283156 0.140982 175 160 138
-0.502987 -0.077796 -0.646788 175 160 147
-0.495649 -0.070638 -0.646968 175 160 150
-0.566085 -0.101055 -0.679869 175 161 142
0.742778 0.051462 -0.439476 175 164 170
0.700231 0.112732 -0.278176 175 165 143
0.637806 -0.101684 -0.374091 175 166 145
0.665131 -0.075072 -0.350913 175 166 158
0.796129 0.113293 -0.426891 175 168 147
0.646863 -0.145647 -0.424334 175 168 148
0.768500 0.123361 -0.337134 175 168 148
0.666582 -0.088879 -0.396887 175 168 150
0.668931 -0.073911 -0.380587 175 168 151
0.667405 -0.087918 -0.418571 175 169 143
0.746260 0.107707 -0.324532 175 169 145
0.773401 0.122888 -0.355244 175 169 147
0.720849 0.096054 -0.304813 175 170 143
0.667896 -0.098400 -0.442129 175 170 147
0.674862 -0.064570 -0.421544 175 170 150
0.727210 0.095859 -0.316302 175 171 143
0.668059 -0.084238 -0.414079 175 171 149
0.757497 0.108088 -0.306294 175 172 145
0.681580 -0.068146 -0.429311 175 172 156
0.686892 -0.119419 -0.544539 175 173 151
0.713516 -0.114510 -0.565932 175 175 148
0.680871 -0.145029 -0.434012 175 176 155
-0.528091 -0.179235 -0.674131 175 177 161
-0.523341 -0.152488 -0.652247 175 181 184
0.391948 0.271305 0.245712 176 144 130
0.633839 0.147275 -0.214094 176 150 119
0.394979 0.116264 0.316178 176 150 127
0.274546 0.336373 0.116750 176 155 133
0.374952 0.116096 0.307601 176 155 140
0.405330 0.274529 0.222018 176 155 140
0.683442 0.142904 -0.221469 176 157 125
0.427905 0.300873 0.195403 176 158 136
0.663409 0.117571 -0.244899 176 159 130
0.460907 0.267734 0.115769 176 159 142
0.414034 0.268688 0.203947 176 160 143
0.453356 0.283392 0.144453 176 160 143
0.459940 0.280424 0.100726 176 160 143
0.431171 0.289638 0.168133 176 161 139
0.455792 0.271832 0.108532 176 161 142
-0.593095 -0.123853 -0.765275 176 161 150
0.698272 0.071552 -0.345432 176 161 153
0.683591 0.125639 -0.249911 176 164 131
0.462577 0.260187 0.141747 176 164 146
0.658848 -0.046010 -0.395326 176 164 152
0.698434 0.063622 -0.344371 176 165 150
0.585175 -0.090368 -0.271666 176 165 161
0.351219 0.218604 0.334646 176 166 144
0.588627 -0.090106 -0.277761 176 166 162
0.687064 0.120715 -0.283414 176 167 136
0.698238 0.104358 -0.291517 176 167 140
0.693942 0.108372 -0.292717 176 167 140
0.719491 0.111949 -0.313443 176 167 140
0.764810 0.127399 -0.335019 176 167 150
0.675739 -0.060909 -0.415624 176 167 158
0.678779 -0.060694 -0.421731 176 167 159
0.672080 -0.098487 -0.440324 176 168 146
0.676622 -0.098688 -0.436163 176 168 146
0.656403 -0.086755 -0.355603 176 168 152
0.728413 0.104019 -0.308789 176 169 138
0.685113 0.108286 -0.296824 176 169 138
0.683897 0.104090 -0.305187 176 169 141
0.636445 -0.146313 -0.413916 176 169 152
0.671841 -0.076432 -0.415251 176 169 153
0.652392 -0.082806 -0.355443 176 169 154
0.638695 -0.139578 -0.397226 176 169 155
0.580524 -0.072540 -0.313125 176 169 157
0.734412 0.047674 -0.395592 176 169 170
-0.550656 -0.180404 -0.743825 176 170 148
0.385781 0.218498 0.332401 176 171 164
0.390370 0.218094 0.323794 176 171 165
0.731795 0.095912 -0.313201 176 172 144
0.719145 0.083511 -0.341373 176 172 145
0.654894 -0.145714 -0.423281 176 172 151
0.701088 -0.104185 -0.479479 176 174 149
0.666937 -0.147926 -0.448660 176 174 156
-0.529905 -0.102396 -0.654783 176 174 170
0.711034 -0.114934 -0.558369 176 176 148
0.595684 -0.085612 -0.288219 176 176 159
0.684485 -0.053337 -0.410045 176 176 169
0.602916 -0.153058 -0.429156 177 146 135
0.526775 -0.082072 -0.275786 177 147 142
0.405122 0.260136 0.217593 177 156 141
-0.462790 -0.077362 -0.573815 177 157 146
-0.539219 -0.071154 -0.634611 177 157 146
0.487491 0.069624 -0.085478 177 159 129
0.449308 0.284123 0.155219 177 159 143
0.427232 0.276682 0.182849 177 162 140
0.422956 0.272602 0.191883 177 162 142
-0.572891 -0.156545 -0.740092 177 162 143
-0.389664 -0.122301 0.053065 177 164 144
0.588341 0.097096 -0.243443 177 164 149
0.702059 0.071537 -0.347120 177 164 151
0.491484 0.078186 -0.090616 177 165 127
0.679750 0.112125 -0.305518 177 168 138
0.540137 -0.018153 -0.222942 177 168 151
-0.525034 -0.102858 -0.646146 177 168 160
0.678287 0.103885 -0.315669 177 169 142
0.421524 0.224471 0.257143 177 169 166
0.590253 -0.077080 -0.299615 177 170 150
0.667582 -0.085277 -0.389946 177 170 152
0.667190 -0.082417 -0.364774 177 170 152
0.668582 -0.081656 -0.383012 177 170 152
0.663217 -0.151846 -0.447370 177 170 154
0.440471 0.243096 0.165385 177 170 158
0.724297 0.100000 -0.308924 177 171 143
0.722559 -0.126090 -0.556990 177 171 146
-0.531896 -0.092054 -0.647680 177 171 166
0.666405 -0.099205 -0.425447 177 172 149
0.541929 0.031142 -0.159703 177 172 149
0.724261 0.095980 -0.309145 177 173 146
-0.529778 -0.095243 -0.655234 177 174 168
0.689930 -0.116784 -0.525402 177 175 152
0.411401 0.224032 0.248286 177 175 171
0.407491 0.220240 0.267977 177 175 176
0.609457 -0.079319 -0.343868 177 176 157
0.706623 -0.112275 -0.539543 177 177 150
0.709558 -0.111995 -0.544658 177 180 149
0.342389 0.127176 0.372392 178 142 132
0.355031 0.115937 0.299475 178 152 132
0.410087 0.288595 0.221115 178 156 139
0.380549 0.097064 0.325107 178 158 144
0.404743 0.254959 0.209524 178 159 143
0.443775 0.283177 0.141285 178 159 143
0.609177 -0.152215 -0.441828 178 159 148
0.681669 0.134283 -0.234000 178 162 125
0.685476 0.134205 -0.236707 178 162 127
0.666497 0.113295 -0.252838 178 162 135
-0.549012 -0.195610 -0.689046 178 162 149
-0.569635 -0.093982 -0.680039 178 162 149
0.672073 0.112857 -0.272547 178 165 135
0.452369 0.273131 0.128431 178 165 144
0.469395 0.252879 0.174113 178 165 151
-0.503941 -0.060568 -0.629643 178 165 154
-0.558265 -0.083873 -0.669664 178 166 141
0.456512 0.263426 0.119965 178 166 147
0.701646 0.059624 -0.349809 178 167 153
0.689157 0.104245 -0.297282 178 169 144
0.661649 -0.075228 -0.346942 178 169 160
0.689321 0.116366 -0.296158 178 171 144
0.587953 -0.065555 -0.283700 178 171 166
0.760160 0.063209 -0.407553 178 172 176
0.789690 0.121774 -0.397906 178 173 151
0.757150 0.051501 -0.424648 178 173 175
0.719217 0.091870 -0.315185 178 175 151
0.701427 -0.106838 -0.501342 178 180 152
0.673133 -0.011173 -0.379188 178 182 190
-0.523796 -0.149035 -0.650607 178 184 185
-0.523042 -0.145277 -0.653324 178 184 185
0.317332 0.122219 0.369926 179 148 133
0.640971 0.170201 -0.157266 179 149 99
0.650252 0.152399 -0.185120 179 150 99
0.317813 0.117751 0.392071 179 150 135
-0.543466 -0.067646 -0.632542 179 158 147
0.641379 -0.012313 -0.316726 179 159 174
0.644275 -0.016145 -0.325626 179 161 159
0.426748 0.271448 0.173835 179 163 144
0.684898 0.129984 -0.240759 179 164 128
0.439405 0.269725 0.146899 179 164 147
0.475677 0.254234 0.197189 179 165 151
0.580327 -0.090094 -0.278022 179 165 164
-0.369540 -0.120565 0.017096 179 167 145
0.265037 0.348141 0.094491 179 168 145
-0.539965 -0.080291 -0.670460 179 170 152
0.536412 -0.001712 -0.217841 179 170 153
0.375954 0.213727 0.334193 179 170 157
0.665014 -0.049524 -0.407768 179 170 163
0.693194 0.104235 -0.297771 179 171 145
0.567530 0.051980 -0.242536 179 171 160
0.694243 0.112454 -0.290684 179 172 145
0.751503 0.123872 -0.317574 179 172 149
0.756178 0.123338 -0.338020 179 172 151
0.681486 -0.098989 -0.429933 179 172 152
-0.535538 -0.087858 -0.660564 179 172 161
0.735151 0.116454 -0.292406 179 173 147
0.782398 0.121869 -0.394294 179 173 151
0.675756 -0.057036 -0.415507 179 173 165
0.553454 0.047968 -0.173395 179 174 163
0.675840 -0.053177 -0.414942 179 174 168
0.716873 0.087648 -0.330073 179 175 149
0.552916 0.031217 -0.178834 179 175 151
0.699999 -0.101259 -0.461982 179 176 152
0.683295 -0.056954 -0.417936 179 176 169
0.738344 0.112290 -0.298082 179 177 146
0.704964 -0.112986 -0.526571 179 178 153
0.712613 -0.117885 -0.571258 179 179 149
0.708129 -0.115223 -0.553231 179 179 150
-0.532992 -0.098730 -0.656725 179 179 179
0.250853 0.324581 0.028944 180 154 133
0.359676 0.120587 0.291801 180 154 134
0.350328 0.111245 0.305960 180 154 142
0.401204 0.275473 0.236777 180 156 142
0.678053 0.138521 -0.229875 180 158 124
0.375276 0.121097 0.316215 180 159 143
0.410059 0.283848 0.220526 180 161 142
0.439424 0.274358 0.147235 180 162 146
0.390971 0.246331 0.223013 180 163 146
0.456159 0.281350 0.114368 180 164 147
0.479529 0.258105 0.183771 180 164 153
0.431143 0.275688 0.167617 180 165 143
0.418131 0.267852 0.190609 180 165 145
0.655936 -0.039198 -0.358970 180 165 154
0.670169 0.117300 -0.256420 180 166 134
0.442480 0.263386 0.119329 180 166 148
0.455983 0.267464 0.111560 180 166 148
0.417279 0.257513 0.173911 180 166 150
-0.316308 -0.105545 0.080922 180 166 152
0.667205 0.108684 -0.277772 180 167 144
0.452833 0.264429 0.135966 180 169 150
-0.335849 -0.125332 0.115861 180 169 152
0.761888 0.127580 -0.328408 180 169 152
0.463190 0.256154 0.151278 180 169 152
0.738617 0.063452 -0.370375 180 169 197
0.689747 0.108360 -0.293257 180 171 144
0.664060 -0.099739 -0.414388 180 173 153
0.660467 -0.086765 -0.355377 180 173 157
0.728340 -0.126787 -0.545360 180 174 148
0.757921 0.115622 -0.327812 180 174 151
0.593958 -0.076944 -0.303072 180 174 154
0.660093 -0.101084 -0.386525 180 174 155
0.720726 -0.121772 -0.567642 180 175 147
0.714860 0.083492 -0.342857 180 175 147
0.563564 0.068408 -0.240453 180 176 156
0.774739 0.126431 -0.370325 180 177 153
0.547615 0.002053 -0.189426 180 177 154
0.663803 -0.148273 -0.443334 180 177 160
0.691466 -0.119703 -0.539585 180 178 156
0.417086 0.224881 0.265393 180 178 173
0.608853 -0.080465 -0.315527 180 179 157
-0.532834 -0.095139 -0.657287 180 180 177
0.677887 -0.145432 -0.427696 180 181 162
0.596479 -0.076418 -0.316525 180 181 162
-0.371175 -0.152126 0.104649 181 155 137
0.339225 0.219898 0.260897 181 159 141
0.395136 0.135683 0.319828 181 165 134
0.431367 0.280597 0.171689 181 166 144
0.435582 0.270721 0.162482 181 166 149
0.421829 0.261941 0.170342 181 167 150
0.469453 0.257578 0.174990 181 167 152
-0.546606 -0.195973 -0.684960 181 167 153
0.702070 0.067571 -0.347050 181 167 156
0.544059 -0.026345 -0.225876 181 168 147
-0.377148 -0.121394 0.034286 181 170 147
-0.561657 -0.182982 -0.753937 181 170 155
-0.365268 -0.116191 0.018548 181 171 147
0.565461 -0.085077 -0.301031 181 172 164
0.747959 -0.129589 -0.498681 181 173 151
0.629967 -0.113548 -0.372743 181 173 152
0.601863 0.039614 -0.198527 181 173 161
0.591362 -0.093622 -0.289957 181 173 162
0.661526 -0.100219 -0.404439 181 174 154
0.604771 -0.128748 -0.382021 181 174 156
0.666171 -0.086053 -0.371913 181 174 157
0.642471 -0.147286 -0.398700 181 174 158
0.679166 -0.056913 -0.419139 181 174 167
0.793818 0.109159 -0.439100 181 175 152
0.783868 0.105517 -0.429312 181 176 154
-0.538623 -0.084211 -0.662470 181 176 158
-0.538216 -0.118159 -0.689152 181 178 154
0.701890 -0.113232 -0.522083 181 179 156
0.604645 -0.080423 -0.316549 181 179 156
-0.533563 -0.091706 -0.654700 181 179 175
0.699376 -0.109924 -0.514045 181 181 156
0.673526 -0.015150 -0.376493 181 181 189
0.359383 0.106038 0.283110 182 158 144
-0.539991 -0.064079 -0.631869 182 159 148
-0.360245 -0.112808 0.041767 182 162 143
0.672268 0.121760 -0.241298 182 164 126
0.664861 0.108956 -0.264744 182 166 149
0.478714 0.262033 0.171842 182 166 152
-0.364056 -0.126017 0.037486 182 167 147
0.455993 0.276606 0.111733 182 167 149
-0.327773 -0.110684 0.094751 182 167 152
0.657054 -0.042554 -0.379733 182 167 160
-0.368826 -0.124807 0.013077 182 169 146
-0.388731 -0.127790 0.073249 182 169 148
0.452409 0.268585 0.129086 182 170 150
0.463250 0.251592 0.152205 182 170 158
0.573225 0.055986 -0.267211 182 171 156
0.572371 0.060015 -0.275107 182 172 157
0.576379 0.060009 -0.276303 182 173 159
-0.326347 -0.123888 0.085944 182 173 160
0.799404 0.112255 -0.471051 182 175 150
0.797865 0.113021 -0.438439 182 175 152
0.759195 0.111796 -0.320346 182 176 153
0.657438 -0.101544 -0.376988 182 176 157
0.594139 -0.064928 -0.301516 182 178 170
0.679716 -0.053161 -0.415454 182 178 172
0.722951 0.091835 -0.317398 182 180 156
-0.539548 -0.112107 -0.671921 182 180 172
0.591376 -0.069380 -0.289841 182 180 176
0.659213 -0.145883 -0.420638 182 183 162
-0.522290 -0.140643 -0.669054 182 185 195
0.313438 0.123350 0.424014 183 151 137
0.385840 0.106900 0.333856 183 159 150
0.370577 0.126067 0.322452 183 161 141
0.383118 0.243998 0.266392 183 162 143
0.359699 0.231026 0.292494 183 163 143
0.677688 0.134327 -0.232481 183 164 123
0.674004 0.126191 -0.228789 183 164 125
0.435696 0.275485 0.164504 183 164 148
0.676672 0.027653 -0.298369 183 165 160
0.676030 0.121685 -0.244308 183 166 130
0.410030 0.279102 0.219933 183 166 146
0.460067 0.276005 0.102700 183 166 149
-0.486994 -0.064374 -0.624327 183 166 158
0.678233 0.015724 -0.316046 183 166 163
0.680995 0.130038 -0.238767 183 167 129
0.430300 0.270069 0.152286 183 167 148
0.429573 0.264623 0.139071 183 167 150
-0.500748 -0.111036 -0.627865 183 167 151
-0.450124 -0.060496 -0.533096 183 167 152
-0.571256 -0.159587 -0.745444 183 168 148
-0.465711 -0.084553 -0.577103 183 168 159
-0.462104 -0.084577 -0.576576 183 168 159
-0.552193 -0.107526 -0.690442 183 169 149
-0.568229 -0.097900 -0.672631 183 169 149
-0.381309 -0.127010 0.057517 183 170 147
-0.386488 -0.122675 0.060822 183 170 150
0.497878 0.069351 -0.120208 183 172 128
0.362311 0.215363 0.369990 183 174 148
0.556393 0.039599 -0.186718 183 174 160
-0.314087 -0.107472 0.125674 183 174 166
0.648961 -0.105302 -0.380409 183 175 151
0.638131 -0.100366 -0.401408 183 175 153
-0.552679 -0.169053 -0.713121 183 175 156
0.507543 0.060888 -0.108463 183 176 137
0.752232 0.123355 -0.337372 183 176 154
0.645773 -0.146973 -0.403596 183 176 156
0.784238 0.125454 -0.405926 183 176 158
0.785482 0.121741 -0.399166 183 178 158
0.592947 -0.072591 -0.311771 183 178 167
0.716015 -0.114099 -0.573272 183 180 154
0.709905 -0.118240 -0.565088 183 182 154
0.374990 0.092005 0.308622 184 153 132
0.288423 0.103837 0.448153 184 156 147
-0.459475 -0.063322 -0.556845 184 161 153
-0.540102 -0.067689 -0.631476 184 163 152
0.364479 0.235656 0.289218 184 165 145
0.487893 0.073980 -0.080207 184 166 134
0.685741 0.138371 -0.234856 184 166 134
0.440090 0.298245 0.158786 184 166 147
0.494871 0.056630 -0.103250 184 167 139
-0.570393 -0.153341 -0.736732 184 168 145
0.447099 0.272488 0.118580 184 168 151
